2.550027 -6.533419 0.000000
-1.252301 -2.369539 0.000000
-3.443732 0.530636 0.000000
-3.810051 7.455714 0.000000
-3.863670 4.856808 0.000000
-3.049504 5.444894 0.000000
-4.844068 3.251651 0.000000
-0.350556 1.304406 0.000000
4.488944 -7.018268 0.000000
4.404695 -2.148823 0.000000
-4.187952 -0.144234 0.000000
-4.934054 3.887405 0.000000
-3.287128 2.563924 0.000000
2.812287 4.538964 0.000000
2.804325 5.304708 0.000000
-3.184307 1.200909 0.000000
-1.205029 7.363085 0.000000
-3.225755 5.813951 0.000000
-2.833494 -5.802139 0.000000
-4.604058 1.635988 0.000000
-1.951901 -1.803483 0.000000
0.614477 -4.518679 0.000000
-0.621031 -6.515505 0.000000
-3.399835 6.521508 0.000000
-3.522564 -2.867052 0.000000
2.897557 6.173202 0.000000
4.757137 0.087328 0.000000
-1.926941 7.245758 0.000000
-1.415102 -2.691333 0.000000
0.464781 -3.243284 0.000000
0.530272 2.470068 0.000000
-0.613389 2.498261 0.000000
1.681430 2.237989 0.000000
1.194335 -4.124050 0.000000
2.100713 -2.539223 0.000000
3.270437 5.744468 0.000000
-4.178808 -2.790676 0.000000
-1.737445 -6.481150 0.000000
4.740232 3.497054 0.000000
2.989474 3.999352 0.000000
-2.423987 -5.984548 0.000000
2.162689 4.452601 0.000000
-3.298811 2.748247 0.000000
-4.745423 6.570903 0.000000
0.521218 -1.724217 0.000000
2.047916 5.661135 0.000000
3.975767 4.651454 0.000000
4.324179 7.367972 0.000000
-2.416563 -6.778876 0.000000
-3.725444 1.478291 0.000000
1.990049 5.045082 0.000000
0.660968 3.540517 0.000000
2.775351 -5.005144 0.000000
4.557608 -1.425845 0.000000
0.068222 0.396043 0.000000
1.022591 -2.969980 0.000000
-0.689578 4.160444 0.000000
-1.126121 -1.157747 0.000000
-1.111434 -2.945383 0.000000
1.032082 2.941538 0.000000
-0.076597 -7.203815 0.000000
-1.053550 1.844205 0.000000
-2.805648 7.114878 0.000000
-0.919697 -1.116768 0.000000
-2.603756 -6.478681 0.000000
-3.456158 1.059241 0.000000
1.512237 0.582292 0.000000
3.676478 -0.175285 0.000000
-3.156873 -7.171005 0.000000
0.823091 3.989792 0.000000
-4.358136 -6.620918 0.000000
2.247566 -0.763191 0.000000
4.081745 -2.745502 0.000000
4.670128 -4.306209 0.000000
4.290219 4.983456 0.000000
-4.416802 4.327579 0.000000
-2.778989 4.410720 0.000000
1.669730 5.249331 0.000000
-4.747892 -0.902377 0.000000
-4.731891 -6.569505 0.000000
-2.819322 -1.572531 0.000000
1.044064 1.354153 0.000000
-3.747204 5.346886 0.000000
-0.510653 -5.655898 0.000000
3.586456 -4.670089 0.000000
3.054418 5.782833 0.000000
1.037618 -5.002634 0.000000
3.400414 -2.622133 0.000000
-4.608879 -3.621209 0.000000
4.007901 3.743742 0.000000
1.313582 5.695152 0.000000
0.821414 -4.757189 0.000000
3.798002 3.444908 0.000000
3.653291 -4.034185 0.000000
-0.186374 -3.657394 0.000000
2.682978 -0.039144 0.000000
-4.675649 7.010640 0.000000
-2.383076 -6.343558 0.000000
-1.397205 -5.542852 0.000000
0.540014 -1.281120 0.000000
0.094595 0.000000 -1.440461
-3.598551 0.000000 -3.571994
-3.897196 0.000000 3.967894
-1.260448 0.000000 -3.647426
-0.146723 0.000000 -3.385107
-3.774309 0.000000 0.753470
-1.448051 0.000000 -1.061677
-2.145010 0.000000 -2.708176
-1.477094 0.000000 3.712865
3.532345 0.000000 3.182200
-3.440419 0.000000 3.343100
-0.158414 0.000000 1.779009
2.171933 0.000000 2.471666
3.114509 0.000000 2.409240
1.837284 0.000000 -1.311495
-0.829226 0.000000 -1.803624
1.103227 0.000000 -1.813860
0.523867 0.000000 0.294955
4.431661 0.000000 -1.404826
3.609897 0.000000 1.544592
-3.231185 0.000000 2.677836
-3.962445 0.000000 -0.389601
-0.600149 0.000000 -2.852450
1.298488 0.000000 1.170104
0.919086 0.000000 -1.544337
-3.062688 0.000000 -0.113845
4.998446 0.000000 1.453463
2.907718 0.000000 -0.321657
-0.824561 0.000000 -0.057176
0.364929 0.000000 2.667295
3.272725 0.000000 -3.415888
-2.740569 0.000000 2.094314
4.429797 0.000000 3.660684
2.569951 0.000000 -2.165321
-0.841736 0.000000 -3.477802
-1.444608 0.000000 -0.412317
-4.080797 0.000000 0.024066
2.190298 0.000000 -2.553450
0.054781 0.000000 2.943950
-1.571773 0.000000 -1.673566
1.306073 0.000000 -0.396098
4.366527 0.000000 0.675124
4.531629 0.000000 3.480424
4.628404 0.000000 -1.466817
1.302677 0.000000 2.761863
4.859879 0.000000 -2.821105
-1.707238 0.000000 -1.823224
-0.605915 0.000000 -1.074929
4.707284 0.000000 3.171877
-3.146991 0.000000 -2.710584
-0.214469 0.000000 -0.299508
0.082804 0.000000 3.601563
-0.880064 0.000000 -3.650373
-4.280485 0.000000 0.705733
-0.188474 0.000000 -3.956136
2.799646 0.000000 0.228396
1.660534 0.000000 -2.065964
1.669138 0.000000 -2.857852
-1.063177 0.000000 3.485387
-3.970499 0.000000 2.055502
-2.565068 0.000000 3.258358
1.964153 0.000000 -3.442308
3.761720 0.000000 1.106587
-2.249543 0.000000 1.682385
-2.192214 0.000000 -2.717377
3.051043 0.000000 -3.179015
2.125747 0.000000 -3.721644
-0.936555 0.000000 1.433005
-3.765314 0.000000 0.857212
4.578561 0.000000 -2.522480
-2.581808 0.000000 2.028639
3.040186 0.000000 3.476176
-4.806578 0.000000 1.359746
2.832371 0.000000 0.089515
-4.533999 0.000000 -1.072160
2.198602 0.000000 -2.429503
1.860793 0.000000 0.602805
2.721632 0.000000 3.971383
1.869042 0.000000 -0.969252
4.890817 0.000000 -0.444503
1.539840 0.000000 -0.218563
1.824782 0.000000 -3.541677
-0.403412 0.000000 2.617817
3.007933 0.000000 1.463107
-0.958830 0.000000 -0.898693
-1.037923 0.000000 -0.728019
0.284900 0.000000 2.088712
2.818344 0.000000 1.446925
0.950438 0.000000 -3.087215
2.878041 0.000000 -0.633136
-2.848716 0.000000 -3.947997
-3.640286 0.000000 -1.502992
-4.371171 0.000000 2.521311
-1.922269 0.000000 -2.445404
-4.058752 0.000000 -2.619755
-4.914323 0.000000 -0.027906
-4.620136 0.000000 -1.540554
2.136729 0.000000 -1.306637
-4.444441 0.000000 -1.171475
-1.266961 0.000000 1.234670
2.766991 -4.164584 -2.566943
4.998859 0.106817 -0.164000
-4.997557 0.156273 -3.190879
4.794942 1.417227 -3.745281
-2.231054 -4.474639 -2.956194
0.391205 -4.984672 -2.554330
0.284283 -4.991912 0.329845
-2.168698 -4.505192 2.082428
4.371825 2.426343 3.937123
-4.573264 -2.021202 -1.030266
-4.753486 1.550603 0.150257
-4.728878 1.624103 -1.017482
2.607586 4.266204 0.146467
-3.978796 -3.028066 3.637217
4.612399 1.930226 2.756099
2.970541 4.021926 -1.968150
4.111385 2.845438 0.701698
4.999999 -0.003699 2.265897
-4.605814 1.945887 2.872130
-1.651206 4.719483 -0.427116
1.813636 4.659477 1.156086
4.999008 0.099606 3.259093
2.366615 -4.404445 0.102890
-4.999131 0.093196 -0.255827
-4.857811 -1.183922 2.550479
-4.909885 -0.945004 -3.771395
1.837483 -4.650124 -1.490132
-0.476274 4.977265 -3.270559
4.858716 1.180203 3.903151
-2.720741 -4.194946 -3.756734
-4.855359 -1.193938 1.532233
-3.458103 3.611305 0.658203
4.759627 1.531651 1.844123
-3.530937 3.540125 3.623976
-1.401506 4.799560 0.706555
-1.386885 -4.803806 1.086232
-4.483988 -2.212206 -0.330989
-4.998228 -0.133123 -1.756258
1.575227 -4.745383 0.215586
-1.945939 -4.605792 -3.417505
4.951807 -0.692536 1.582744
-0.768995 4.940511 -2.764066
-1.203875 -4.852905 -3.677798
-4.554787 -2.062503 3.372859
-2.543742 -4.304576 -3.356309
3.267376 -3.784740 0.158665
4.615570 -1.922632 3.551202
-2.461863 -4.351923 0.738996
3.418049 -3.649239 2.939995
-4.970575 0.541649 -0.800469
-3.857941 -3.180612 0.814297
-0.120700 4.998543 -0.556226
-3.512837 -3.558086 -2.770732
1.894393 -4.627232 -2.471118
-0.919916 4.914647 1.960443
-2.914241 -4.062906 -1.612620
2.165246 -4.506851 0.815427
-4.978492 0.463266 -3.193471
-2.410841 -4.380393 0.240478
3.300116 -3.756226 -1.971538
-1.246060 4.842245 0.182237
-1.499892 -4.769730 -2.946478
-4.274649 -2.593719 0.810106
-4.998642 -0.116521 0.630573
-4.299196 -2.552824 0.314311
2.262185 4.458982 -0.828909
0.451269 -4.979594 -0.854082
3.024434 3.981557 -0.090276
-4.944919 0.740116 3.395795
4.336480 2.488964 1.788159
-4.160643 2.772914 2.953930
-4.357023 2.452825 -0.067180
-0.871537 -4.923456 -1.645605
-0.560473 -4.968488 -3.837090
-1.271944 4.835510 -2.042570
3.204726 -3.837933 0.285394
3.067390 -3.948559 -2.856588
4.828905 1.296795 -2.470131
-0.039858 -4.999841 -1.856477
-4.983851 -0.401531 -2.262414
-1.066116 4.885017 -2.698606
2.627322 -4.254078 3.443940
4.211987 -2.694284 3.061507
-3.894520 -3.135716 -0.233481
4.589364 -1.984373 2.112024
3.281086 3.772861 -3.582072
2.480027 4.341597 1.898311
3.042573 -3.967713 1.013326
4.545760 2.082323 1.832694
2.154073 4.512202 -2.279163
-3.536362 -3.534706 -3.621348
1.322233 4.822002 3.935027
-4.746641 1.571432 3.165179
-4.999998 0.003878 2.152536
4.480148 -2.219971 -2.231650
3.687925 3.376272 1.999575
-3.133567 3.896249 0.662838
-3.550149 -3.520859 -1.629642
-2.361508 4.407185 0.847567
4.793683 1.421480 3.042679
