1.689058 4.706069 2.748483
-4.598636 -1.962790 2.086499
4.994257 -0.239569 2.261281
4.956869 -0.655321 -3.342899
-2.153084 4.512674 3.455257
3.188919 -3.851077 0.547892
-4.479428 2.221424 1.440287
4.935470 -0.800707 1.370017
-1.815365 -4.658804 -3.509028
-1.703928 4.700705 3.090504
2.592919 4.275134 -2.190576
3.638521 3.429456 -0.595984
2.131380 4.522966 -1.899523
3.122417 3.905191 -2.733537
1.277939 4.833929 -3.033131
-0.509022 -4.974022 0.567243
0.775093 4.939558 -3.057625
4.481775 -2.216686 0.577479
-4.264470 -2.610420 0.950988
-2.433623 4.367777 -3.742574
1.785594 4.670295 -3.578596
-4.536896 -2.101564 -1.275015
-4.547752 2.077967 -3.980720
4.990287 -0.311508 3.385287
-3.073501 3.943805 2.144248
-2.305013 4.436994 1.932753
-0.010579 -4.999989 -2.660672
-0.342697 4.988242 -2.139185
-4.931750 -0.823309 0.044782
-4.648231 -1.842266 0.680450
-4.979453 0.452819 -0.437329
4.999254 0.086383 0.144458
3.222481 3.823037 -2.695450
-3.611115 3.458301 3.265141
-4.929959 -0.833967 3.719207
-4.977329 -0.475599 -1.167661
-3.708594 3.353554 -3.559782
-4.403164 -2.368996 -2.752133
-0.131463 4.998271 3.660342
2.663320 4.231634 -0.217762
-4.187653 2.731952 -0.630126
-4.543368 2.087537 -0.172379
-4.495199 2.189335 3.056963
-0.019921 -4.999960 3.322052
1.430769 -4.790919 -2.210275
-2.331971 -4.422885 0.174699
2.316380 4.431070 3.611714
0.544858 -4.970224 2.207217
-2.414358 4.378456 -1.059125
-0.596094 -4.964340 -3.062474
-3.626847 -3.441799 -2.358771
4.072082 2.901405 3.535431
3.023891 -3.981970 3.629218
4.998151 0.135957 -1.414111
-4.692646 1.725999 1.644444
2.145917 -4.516087 -2.492851
3.996896 3.004135 3.032456
-3.834781 -3.208498 -2.677923
-0.638280 -4.959093 1.598785
0.906807 4.917083 1.569319
-3.171489 -3.865444 -2.533491
0.491831 -4.975751 3.537577
3.959714 3.052976 -1.658336
3.159900 -3.874923 0.161090
-0.291883 -4.991473 -2.919878
-0.908937 4.916689 -3.166895
-4.457173 -2.265748 -0.949911
4.480407 -2.219450 3.026149
0.302738 4.990827 -1.426471
-4.995836 -0.204025 2.984539
-2.028485 4.570038 -1.003309
2.827615 -4.123663 0.418593
4.489820 -2.200344 -0.299539
-3.344651 3.716627 2.411743
0.314409 -4.990105 -3.543356
-4.888328 -1.050833 1.781015
4.751592 -1.556396 1.253165
-1.245856 4.842297 -3.693069
-0.884365 -4.921168 -2.047694
4.999735 0.051478 -3.135145
-4.563797 -2.042488 1.458508
-3.994990 3.006668 0.350112
-4.906273 0.963578 1.973688
1.389730 4.802983 1.797953
-1.715242 -4.696589 -0.365929
-1.584597 4.742262 -1.611676
0.173179 -4.997000 -1.149268
-3.406539 -3.659985 2.370834
-3.824032 3.221300 -2.654611
3.779702 -3.273203 -1.509954
2.363012 4.406379 -2.607000
0.283165 4.991975 -3.088062
-4.611310 1.932826 -1.894808
2.599140 -4.271355 1.200028
-2.295454 4.441947 -2.256028
2.015619 4.575727 1.316215
-3.210332 3.833245 1.576842
-0.236633 4.994397 3.096904
-2.933724 -4.048860 0.937651
-0.378771 4.985633 1.925458
