x,y,z
217.743995,129.950669,0.860407
-36.427261,29.472550,0.346102
-60.661127,94.953939,0.199968
-142.764878,-33.716762,0.601082
19.905069,-26.828224,0.906533
65.450012,84.479391,0.576161
42.906302,-87.208131,0.723753
-37.600565,46.428119,0.363934
-51.937077,32.607035,0.722534
179.136084,149.298306,0.442809
-87.374240,200.849113,0.841095
52.009594,28.682122,0.249451
32.545960,-84.551619,0.437947
-56.643304,72.105810,0.094647
34.643679,-2.210061,0.448477
131.804871,18.340699,0.370742
46.824554,-270.525157,0.616211
-215.689813,-17.725847,0.755658
107.045044,-183.784761,0.815624
121.715333,22.973297,0.287683
47.345816,103.163596,0.330749
-119.167355,-218.678029,0.108739
-119.947623,17.904733,0.191942
-76.458281,-0.114831,0.510982
-87.811035,56.587800,0.649685
-133.603563,71.241320,0.549840
122.558337,22.653099,0.021739
-64.115070,-94.966486,0.692923
-128.670224,-28.820289,0.733095
-34.579421,-124.134752,0.927307
63.646219,71.762251,0.809356
235.949973,120.238310,0.618396
-110.759226,-7.466647,0.393769
15.226033,120.763158,0.701873
137.779009,-152.607528,0.876037
104.315831,-43.451050,0.243545
-105.222759,-13.602073,0.156370
-109.121566,41.520189,0.302451
-19.591611,28.268140,0.284880
-8.474186,80.291623,0.311245
-50.320304,-119.390365,0.535794
46.104539,-88.609454,0.831436
23.599166,125.979546,0.142140
-12.131227,-42.894653,0.952871
51.591860,3.592268,0.559988
26.738007,63.557597,0.266910
-14.917017,-56.948571,0.646639
-38.674383,-61.385662,0.080639
-141.712511,-0.064271,0.835850
63.401385,64.157557,0.221166
-163.769322,128.151634,0.686529
139.600468,69.613623,0.796370
-113.500625,84.659860,0.296517
64.730717,-125.375871,0.162697
106.560251,29.961524,0.224981
179.157301,-43.872066,0.074462
20.531245,149.136032,0.494335
95.634284,72.683883,0.611242
114.171637,17.150896,0.201874
55.464147,-59.795964,0.301601
194.979486,-120.841227,0.990722
-7.397871,7.365912,0.237230
21.797031,143.510764,0.594721
48.834232,-196.264990,0.024447
45.258530,-222.307931,0.251795
92.345325,-89.115252,0.324638
-28.321351,-180.746469,0.440779
24.064418,74.346938,0.784619
-140.079400,-15.581763,0.094445
4.226455,77.442195,0.535645
-67.194788,92.130373,0.815889
-107.111459,2.508934,0.084309
-90.386826,37.373279,0.964803
20.321791,-1.426466,0.393457
105.008271,86.761713,0.562473
193.949997,-141.344833,0.883203
-121.667188,3.646379,0.280148
52.467656,144.621219,0.842407
-167.393233,151.210157,0.599897
50.536693,105.297571,0.388341
-32.949496,-179.539269,0.562460
-9.635863,-101.283553,0.778609
17.966427,76.782520,0.600498
51.354726,177.388902,0.183459
151.852982,-221.181008,0.492331
4.529418,-245.430596,0.229188
79.798328,-157.037461,0.993285
232.158630,-171.593218,0.092521
-185.229916,132.538485,0.172166
22.072219,-114.566453,0.391135
62.106558,-166.231666,0.956500
-164.799173,-58.149806,0.997168
-51.343484,-19.323374,0.132596
-85.785233,-87.193754,0.223538
-132.705708,109.157958,0.494679
-133.524418,49.154537,0.619843
50.113025,109.072818,0.358848
-7.909723,49.447744,0.005495
45.314039,71.133459,0.821227
-31.552077,-190.980469,0.441737
-166.943494,19.412359,0.120632
-17.692150,56.715808,0.660387
111.107091,-0.145530,0.798019
26.246427,11.701340,0.053482
-17.616035,-56.947001,0.610652
99.890680,-80.199809,0.169212
-28.203841,-86.601238,0.949865
-77.034765,-98.529485,0.811881
83.195762,-80.646177,0.055997
30.797455,27.678765,0.078431
-117.393502,-149.301537,0.582528
74.414185,-3.291856,0.163516
-72.370173,96.455590,0.804310
-18.998981,70.705024,0.681671
15.822163,19.715770,0.238431
201.914265,58.748997,0.043037
10.568357,-1.166845,0.740453
-204.383238,121.134766,0.724240
-56.664872,124.119682,0.102307
-7.399340,97.977839,0.211787
100.978090,47.397786,0.421035
163.209273,-6.982698,0.259480
74.202538,-0.935223,0.392486
-33.115900,204.877705,0.642366
28.740905,114.209078,0.739751
120.768419,35.992540,0.046042
-140.924940,47.152945,0.508440
34.220541,-153.669086,0.202686
87.516200,-104.280723,0.046784
-15.940882,46.297399,0.458171
-56.966143,171.736482,0.528589
94.436658,50.626312,0.111620
118.706352,-168.058746,0.076364
-1.169203,-11.677512,0.597608
-17.080794,119.029484,0.986351
-73.101306,95.093338,0.035511
-21.801337,-185.233177,0.770981
13.776990,187.286663,0.900095
85.556801,-5.821518,0.449061
-209.977237,-26.410294,0.159133
-39.458595,-131.428373,0.472773
35.473862,101.034553,0.671058
12.838513,-12.437144,0.688822
-100.248903,148.066548,0.106724
16.571133,-88.245841,0.034354
-39.027192,-27.217516,0.043589
66.171897,-43.263826,0.108335
-169.709880,-31.073847,0.519943
-2.372588,22.409721,0.040062
-100.857119,-62.337135,0.856696
61.501850,110.459506,0.234558
114.165021,97.799790,0.411733
-83.751150,-36.185619,0.166112
-36.203093,-167.416272,0.443771
47.879470,107.780616,0.262974
-28.510109,176.151466,0.407999
-125.753529,-129.657265,0.301043
12.169785,-68.652537,0.662471
-43.852060,18.150694,0.321525
43.323436,-112.935318,0.054855
14.458733,19.218612,0.501821
-92.217603,-55.844647,0.190100
-12.899906,-102.466870,0.679040
82.125314,134.669188,0.117845
90.187910,95.132900,0.087373
136.608063,95.222240,0.753539
-77.901022,-71.333920,0.719839
-52.946867,-196.205337,0.807485
-169.495901,45.602758,0.557316
78.275669,20.340744,0.451311
-231.538471,155.304616,0.991449
110.618941,42.867585,0.123016
-1.792601,176.099395,0.956477
1.123541,-154.710952,0.310296
86.247624,-51.152772,0.086624
23.435378,-30.940720,0.211741
-121.072644,-44.357749,0.995620
-67.301208,88.074955,0.122478
-136.160737,5.465029,0.059166
-85.446271,81.767862,0.437132
30.771876,-16.158904,0.446973
-166.977547,110.854264,0.888466
-85.124325,-1.975681,0.712384
-72.382015,62.569977,0.273581
122.156143,-13.032954,0.017546
-51.301690,-98.042146,0.476265
21.112072,159.050008,0.820871
59.640254,52.926287,0.312078
-50.421601,22.970641,0.360114
118.381186,73.417521,0.324444
53.984865,-113.480534,0.271068
100.069151,89.633601,0.455415
-112.381869,-61.356406,0.142542
-21.148714,-143.520781,0.077786
-16.560520,176.612289,0.581244
-65.549102,-8.697735,0.477052
31.103674,-42.278137,0.883647
-66.696570,-66.435040,0.888173
-53.212153,71.923679,0.829897
120.392274,82.132544,0.960973
29.095956,3.117234,0.094321
21.818871,-78.982523,0.127986
5.737532,3.376696,0.069867
152.236889,-19.760200,0.124528
-76.839840,81.320926,0.650702
-49.417739,68.207216,0.525551
-29.542235,-134.458402,0.003469
123.311233,38.428784,0.636600
-7.631823,-56.490149,0.692808
19.737290,83.796840,0.980456
31.025473,100.859182,0.044965
70.671064,-23.570033,0.588788
11.208228,212.969717,0.531560
34.175832,-29.401191,0.673718
219.343262,101.574125,0.003611
-57.918107,73.448253,0.039491
-57.258697,82.840642,0.123278
49.577273,-2.341345,0.743646
-28.986404,-56.305154,0.921962
-121.333879,53.655721,0.237391
-128.301947,146.689631,0.903761
-9.442158,12.250810,0.893737
4.509047,39.678073,0.299968
-49.734480,52.608021,0.337578
97.956435,-220.033008,0.240941
84.626970,26.122747,0.142746
-103.826242,109.840346,0.971448
-101.036370,29.830443,0.535048
-10.837811,119.761754,0.898402
41.635449,-116.724090,0.484053
-107.220519,140.943144,0.782789
-103.313381,1.362220,0.510588
-78.012515,-30.332341,0.713704
36.601579,106.021694,0.875819
53.190636,60.560587,0.303262
-61.859824,95.899740,0.177784
-94.237158,-114.016882,0.782112
75.764191,193.807828,0.220381
3.856035,6.169685,0.490827
0.831690,-144.784414,0.567273
-151.495018,-123.769576,0.603063
-33.584506,35.287883,0.682178
-130.053244,9.359825,0.162373
-55.081605,174.592804,0.323761
87.539147,-34.703001,0.377149
84.343715,-129.663866,0.533374
-140.626155,98.515435,0.737674
87.927027,-125.501209,0.365170
129.732515,92.485794,0.177555
-27.233334,32.220799,0.731009
-12.309426,-72.621746,0.291798
-2.025352,299.054080,0.375807
12.602312,49.781556,0.049446
7.405275,95.985973,0.107250
-67.353729,-32.320623,0.855525
-17.632317,-82.707193,0.187792
59.969605,23.423287,0.659559
-52.672770,-18.611090,0.943720
-52.933367,-95.352662,0.707056
-46.241180,-192.402436,0.311286
-13.970618,-102.397640,0.748294
-4.199726,-82.173742,0.145423
-201.246378,-52.501601,0.819791
94.902441,45.710856,0.580343
61.696447,-85.270051,0.449885
43.974203,51.126852,0.681363
-16.967016,61.706897,0.563246
-149.802141,-56.749010,0.568659
-1.211383,-42.152077,0.515537
84.344656,39.558396,0.772140
42.824700,-100.110465,0.905549
39.580985,58.661233,0.995395
0.273647,73.337483,0.861645
90.250187,224.696184,0.424827
133.249195,-46.455148,0.227328
-180.248045,-162.387685,0.437295
-84.559505,-5.145502,0.707506
182.993985,57.930502,0.964714
-107.532737,15.061038,0.493800
97.440872,68.890455,0.013521
61.338421,-233.158548,0.275080
-108.672166,-133.983601,0.747017
-35.473772,65.554093,0.488783
-171.647540,90.894085,0.553663
-151.988877,31.196190,0.618148
7.864305,-81.521427,0.834358
193.225990,-102.985916,0.372895
-15.956361,-67.364033,0.708680
-35.015665,66.839612,0.938225
-28.739492,10.000702,0.110481
117.814164,-97.656774,0.877600
-1.154246,-139.086684,0.699108
-9.744674,-46.766795,0.198382
80.418022,-59.859158,0.052761
12.598230,5.598420,0.709121
-59.881553,-108.249611,0.938097
50.226795,61.390015,0.541256
103.427758,87.280934,0.688095
-29.770815,97.482388,0.065608
-146.345807,-14.290342,0.407948
131.706775,-17.473071,0.028965
-27.903407,-159.634559,0.043828
19.143890,-133.118514,0.062501
6.895533,-147.261721,0.194780
-111.904897,156.989153,0.418954
-21.007497,84.596312,0.562949
-81.009777,-123.373922,0.917576
-138.358583,-95.100177,0.118307
195.729967,-208.537528,0.942100
-64.825966,1.366187,0.028403
-124.987744,-68.599808,0.661647
-115.215966,89.686611,0.546648
33.118560,-99.166548,0.169426
185.929316,-173.065600,0.796200
5.099225,80.721167,0.560116
78.394797,-85.094521,0.882334
-4.558178,-161.885279,0.539469
-40.902895,-37.705413,0.783239
-53.196103,234.497888,0.309099
-136.688901,-162.598469,0.885919
143.411574,20.572681,0.287711
74.755565,82.086245,0.102229
-102.600760,111.120321,0.021031
47.602952,27.245106,0.996177
175.420175,110.099249,0.848572
172.808401,-8.392294,0.968694
-108.676031,17.851748,0.195778
95.989487,27.333784,0.189401
3.339780,-133.260614,0.164877
154.940221,-4.790439,0.634159
126.840911,216.949726,0.649764
109.849298,-95.094339,0.260752
111.976310,-74.169574,0.701590
49.741470,-100.354950,0.428362
17.232595,-168.290142,0.358053
77.423560,-266.691641,0.339253
57.035688,-28.668525,0.492010
-68.269805,-50.270563,0.046164
161.849977,40.751080,0.479095
95.523913,119.970564,0.926964
107.955037,74.953302,0.899006
162.029598,82.264561,0.772386
42.465976,106.014167,0.534221
92.999262,64.474384,0.289018
78.948856,19.759583,0.434051
127.521081,190.417060,0.402839
63.481445,-50.893899,0.134109
-96.575676,-30.382942,0.309742
-73.442859,-139.620675,0.155935
-79.969696,-10.464919,0.821552
-129.212882,-154.906236,0.415404
9.927013,49.021287,0.480872
-50.998146,-34.168756,0.244401
202.498297,-38.211917,0.599297
25.227255,226.234652,0.351272
51.438106,30.106325,0.472808
98.472985,-13.844020,0.256880
112.261069,-3.871369,0.489276
-40.351845,-10.733331,0.427494
39.319712,-91.259817,0.785215
124.650714,99.034555,0.504940
50.834028,-30.576056,0.606306
-148.812352,-93.879169,0.042322
-102.355398,-65.677398,0.515910
241.904407,54.044137,0.257694
-14.106008,-143.876082,0.264362
-10.247068,-35.854245,0.390604
115.970766,34.375971,0.617898
-45.420613,-7.866903,0.588356
85.491115,-160.488522,0.328364
87.077355,106.422345,0.301626
-20.462327,27.757606,0.204670
-50.476561,-31.961887,0.593182
4.377624,-26.033803,0.940028
52.158730,2.271436,0.044616
-62.195561,-97.795464,0.921282
100.744325,-68.218913,0.002331
-193.097297,-2.666270,0.539668
161.492989,91.599319,0.929898
-134.508102,18.018853,0.768791
72.449394,-28.166070,0.745035
-89.665637,-72.952565,0.958951
12.806492,52.457187,0.725247
195.925238,1.393246,0.457165
-334.671837,45.678012,0.078991
46.119906,11.120382,0.343847
132.322620,-211.390124,0.366837
34.282093,36.592740,0.150753
108.782335,-94.346739,0.559435
-144.092703,74.542993,0.573015
10.497647,-17.441475,0.752627
-203.512147,33.346027,0.449330
88.717189,-109.840488,0.811683
134.014454,11.085927,0.764413
35.160499,119.261080,0.887713
-129.628315,58.538837,0.382929
247.561998,-114.719653,0.025628
-9.576861,36.502938,0.961648
39.820461,-135.376140,0.179900
-63.275674,55.538849,0.717115
2.260367,120.955866,0.476414
-21.774180,-73.227364,0.286740
72.749781,-19.423118,0.002141
-172.640203,131.424244,0.161850
41.367391,-12.001817,0.598926
-62.312252,-207.085969,0.274372
7.289184,125.939717,0.409287
1.848306,-54.260437,0.902481
-48.018908,83.648845,0.277443
30.993243,4.016971,0.021675
-155.244927,-71.519763,0.521458
-110.745812,-34.952814,0.337063
0.896660,8.421134,0.755930
-100.609823,-21.410082,0.005124
76.467835,0.653561,0.496935
-147.827837,94.498707,0.575808
5.284567,-28.091954,0.746753
-112.528897,-1.847698,0.365665
-224.261101,-60.672997,0.050659
-41.864058,15.698093,0.187364
56.830774,-189.035503,0.477146
-91.946268,-29.841484,0.771754
77.539860,45.867905,0.496785
-29.356636,110.552828,0.986381
-1.536946,-60.278731,0.531917
11.199675,-46.405387,0.083423
50.936404,-24.008448,0.157328
-173.105551,-257.042518,0.281482
-163.722343,-117.270476,0.810699
-33.273538,-6.271820,0.888152
-111.229749,-39.496088,0.939944
22.761938,-10.052412,0.883500
124.532729,-83.489036,0.399058
-19.702818,-150.941956,0.679816
-50.225105,-55.101957,0.274108
113.311458,-19.668011,0.118595
-2.555889,-11.458919,0.791734
-46.752953,219.980635,0.957228
73.299202,-113.406923,0.424549
9.986910,-91.736943,0.215466
-38.728154,-63.859493,0.073504
-77.934684,129.615529,0.807459
-136.089263,32.528568,0.301304
-24.535773,12.341594,0.854597
89.902928,23.731447,0.922202
-31.778493,62.397830,0.011769
147.710595,-117.811978,0.914515
235.755960,-10.082751,0.911752
-67.707892,-16.468734,0.863800
-50.405960,-13.976978,0.242315
-138.244001,-61.240387,0.864283
-158.334127,-99.157500,0.367591
-41.214440,-51.029137,0.496113
84.707598,188.976765,0.104003
57.470833,189.866347,0.384108
89.479421,45.501135,0.689763
-143.765399,88.354886,0.608009
-121.137960,204.392503,0.333479
33.332762,83.379064,0.502072
30.004372,-35.091822,0.153306
32.173635,44.011722,0.362195
160.923377,202.152114,0.919952
66.576334,-27.147676,0.616719
52.498957,70.024132,0.765173
-169.087185,-93.051079,0.079962
61.710954,-30.522361,0.311963
9.943498,51.412460,0.517260
40.789745,14.885801,0.771650
-71.903535,95.743012,0.841240
-76.939104,195.394108,0.778955
-65.812750,100.024988,0.380817
16.424812,21.834454,0.038908
-10.146240,131.320469,0.505590
67.064872,-18.292474,0.105459
-1.326951,-122.247924,0.763236
120.002798,-35.831145,0.471514
-60.154899,-82.732352,0.786006
148.149808,24.944455,0.093856
130.519601,3.122699,0.935607
-125.467726,-78.352561,0.190985
-66.121532,35.495879,0.077703
40.910412,7.653281,0.920836
87.617350,-55.170103,0.763097
13.717531,96.844998,0.809486
6.222139,14.977616,0.272321
-77.960618,-51.790786,0.519390
22.366170,-11.027608,0.413868
-98.535128,-12.742397,0.840692
-79.065894,-5.129551,0.663895
-90.722252,-177.550727,0.090717
90.505936,-35.519624,0.114690
-96.339822,-103.641545,0.320763
18.575543,-108.328651,0.151974
76.713482,-112.502804,0.795003
12.886597,206.660229,0.312984
17.426213,61.424649,0.581637
54.362800,-84.347191,0.697553
-24.506124,143.913256,0.928204
57.550748,42.178887,0.371719
-4.194756,-15.686493,0.688439
-71.334221,76.466557,0.956465
-293.098753,-108.294469,0.917417
92.781168,-44.245456,0.592502
40.035641,81.079206,0.832128
-107.490764,-32.708933,0.835236
-145.266693,-10.876177,0.515422
19.436410,-30.158557,0.221533
-13.486523,176.379502,0.015332
42.149775,-83.006086,0.582326
-150.348728,134.078712,0.881939
59.557042,206.940646,0.086658
-53.939733,84.036778,0.021964
183.703287,89.315626,0.237331
105.171116,-161.637823,0.865170
-76.928294,-13.564852,0.130333
127.599072,84.192881,0.942700
52.483550,128.663646,0.277510
-2.824650,-94.260392,0.602210
-116.109276,-24.432712,0.231618
-136.156599,-60.326578,0.027889
-128.532664,-123.967584,0.339006
124.901980,-94.780762,0.799541
-116.990740,-33.409618,0.343578
-6.865580,58.557750,0.305296
-25.955097,59.555658,0.468671
73.629542,-207.760280,0.752945
51.744976,84.882468,0.786343
-211.415396,107.853223,0.076545
159.375858,-41.947696,0.587873
-137.540047,-82.977224,0.556109
158.523277,100.954773,0.343093
43.286686,16.188523,0.423860
151.648208,138.855385,0.138230
-167.382131,79.820280,0.302528
33.499261,176.952763,0.764717
92.370180,-23.596818,0.601449
28.182932,-39.098696,0.564585
-11.086643,-75.234916,0.990543
-153.034339,4.766488,0.746306
-91.006751,84.944060,0.043069
187.164373,47.021410,0.838256
204.720930,84.462972,0.808168
-49.436445,-120.507597,0.968960
49.275449,85.246259,0.419913
9.695038,-126.121290,0.464065
213.899940,-36.435510,0.532658
-39.828956,-7.779213,0.600293
-0.805892,38.791024,0.274370
21.599236,39.952812,0.279202
155.230043,27.581179,0.412138
-20.520730,74.814948,0.184523
-59.651889,-12.306365,0.047356
-121.235586,91.283182,0.301643
-32.868509,-64.633883,0.130600
169.415951,19.324956,0.734839
74.649542,-27.799859,0.190364
-104.455163,108.283660,0.682616
-154.589482,206.117398,0.396211
-16.807316,190.246567,0.733184
-50.202740,-140.773130,0.279656
-71.384569,-75.074725,0.799076
-79.417291,-12.634995,0.524636
-53.226028,42.986540,0.462135
-216.407394,6.494920,0.089159
103.922906,-7.662075,0.580477
-152.524438,155.462450,0.399199
-73.507972,45.677059,0.670539
226.129636,-70.878243,0.541055
61.672285,-165.329336,0.147772
70.923728,58.540333,0.396889
25.343743,-16.849674,0.838146
-200.596928,17.288030,0.315733
43.212547,-77.046004,0.079741
-31.892094,-77.304289,0.570686
144.904292,-27.119767,0.831049
9.565286,25.200627,0.257668
-121.454597,145.857319,0.303117
177.945930,125.013633,0.395837
-76.078242,-37.035215,0.080257
41.722581,10.428607,0.975984
106.244668,151.033018,0.870942
-25.450538,13.081242,0.074352
77.384642,73.548588,0.124085
-93.652019,113.810659,0.666542
-4.362850,38.945237,0.955530
-53.159715,15.790877,0.216495
-42.327964,-48.101202,0.208619
-127.016180,33.656320,0.812477
78.056746,-28.799536,0.148446
132.147189,-69.138745,0.774012
-33.859999,-155.077822,0.784508
-14.354779,-219.776589,0.929371
68.118531,-70.269272,0.728330
-40.338450,69.622431,0.963016
-52.166956,4.594885,0.982632
1.554748,-74.847951,0.161150
-49.108042,-43.333505,0.034283
159.198615,73.892726,0.983864
-65.480373,31.875498,0.117652
-57.984406,26.194715,0.783579
79.488400,-181.521549,0.629665
-16.832876,-98.789485,0.835088
-84.126748,-8.186428,0.415638
41.156460,47.196618,0.418733
129.205778,-15.408378,0.594122
-71.423636,34.673171,0.957385
-36.196050,-66.714236,0.667626
65.985552,-34.245367,0.482120
103.333591,136.927794,0.976739
-56.758203,99.145104,0.511872
92.956691,79.634811,0.959228
-163.587064,79.612530,0.160543
-41.915708,76.267528,0.744567
-252.094893,94.327567,0.162054
-99.013705,53.031161,0.767756
155.164433,122.782856,0.217049
182.016160,40.487209,0.260265
136.846880,-116.347641,0.944406
66.141985,-105.564378,0.301520
190.282762,58.180759,0.955901
-178.172380,-91.610003,0.524761
7.476922,19.968738,0.790531
-195.259491,117.341314,0.861931
67.922990,-44.886012,0.506870
130.931205,-47.300618,0.716451
-26.954712,-88.143792,0.333140
76.417708,-10.256046,0.363481
-80.444379,30.233640,0.647289
-72.628790,28.837404,0.850162
-50.584405,-131.531602,0.306158
-99.572793,-135.952882,0.082976
-62.420174,-45.350774,0.196277
127.177898,-23.013539,0.307946
203.140583,-89.397284,0.102206
-21.156325,-38.308543,0.876715
219.418908,-41.608525,0.920648
-14.749295,151.422449,0.786382
133.864008,97.543648,0.481928
-165.446188,-19.656074,0.907183
143.456451,-143.518289,0.938097
45.257253,-146.761674,0.818929
-110.725070,-0.577822,0.064996
-10.801756,-37.057506,0.247856
-74.202085,-36.518075,0.109115
-28.855329,-1.783280,0.598108
100.528433,-110.260991,0.123080
32.246208,41.999993,0.964897
-134.486991,-68.143908,0.568579
8.379479,-101.320776,0.387540
-118.684980,245.246504,0.373172
-72.144119,-17.840182,0.784583
237.569440,183.729590,0.317873
111.254926,56.087316,0.919732
60.359337,-51.981687,0.348862
-11.229316,-179.578636,0.328868
-33.219409,3.792018,0.246069
131.108991,-89.843347,0.980352
-27.508975,-35.824884,0.926968
64.844093,116.822565,0.003678
-94.111015,-122.857828,0.053926
-62.559262,-52.914520,0.707973
40.715457,-73.412267,0.255052
-85.918158,15.790225,0.362606
-15.464098,171.645974,0.236886
-48.683099,47.739423,0.183898
-12.983266,-90.008257,0.072784
-94.374700,-11.761237,0.980223
-89.973528,-173.043505,0.765957
26.353446,74.584976,0.233834
57.387566,117.421532,0.580637
-70.821606,47.718812,0.841688
-148.262193,129.788706,0.829147
-49.733126,-56.562177,0.414705
-48.587428,-74.443485,0.613406
49.490171,-99.174978,0.770831
122.713899,-33.182406,0.526336
-72.336175,-210.324858,0.742006
154.702800,96.820555,0.418824
-6.012938,15.627848,0.101026
-105.886773,1.959748,0.327211
2.946955,32.658976,0.434016
-14.729061,73.452303,0.540503
-22.956623,110.266216,0.777591
-16.240536,-36.666729,0.606421
101.907802,-37.380808,0.698828
-19.508336,-72.141554,0.276456
-35.259426,68.545191,0.821731
91.176423,10.572124,0.501127
51.615961,-76.367618,0.145929
72.580761,-119.851583,0.356923
-51.049211,-137.838996,0.140310
-179.094871,-231.733597,0.236869
-137.273349,66.613406,0.739207
45.767754,-246.218287,0.606244
-50.769897,25.650732,0.834167
-26.442344,52.242155,0.954114
0.004083,-9.006775,0.007775
146.583702,67.264761,0.337238
11.719463,77.923302,0.344810
121.902559,56.438931,0.610630
-63.149489,46.502249,0.469603
-126.029148,-102.203054,0.983158
-2.237913,-160.470378,0.365264
162.127531,75.593001,0.405351
109.638416,-48.818175,0.077481
79.605400,91.745755,0.997264
34.343590,-72.776518,0.365885
146.506663,87.379824,0.195164
168.118576,115.401643,0.296501
33.939497,-40.833982,0.029363
134.945843,-28.282568,0.663432
-54.746335,-27.003919,0.836157
-80.040973,12.228795,0.482675
-24.912203,-259.247730,0.086210
13.461172,-17.921140,0.048827
-55.326725,-14.797579,0.355170
97.220106,15.909737,0.874468
45.989968,159.801593,0.194807
-31.014120,-79.692347,0.522385
-8.954803,-107.177205,0.720544
-19.412664,-47.606569,0.780038
65.490494,-37.481960,0.413694
-139.797359,10.235169,0.968056
55.160512,-118.315305,0.732428
-46.234085,-12.307972,0.693659
-69.127357,207.417734,0.467046
110.208875,13.674179,0.074994
95.195655,-28.174713,0.179238
-125.331068,-97.921711,0.055788
-128.146701,1.042648,0.361985
71.697469,-64.319389,0.747013
8.568289,-227.731919,0.142927
-129.821281,41.361291,0.452454
-21.009552,74.009569,0.811900
81.206132,2.138479,0.150827
-116.743074,-6.364823,0.816323
-1.612560,10.494691,0.584940
-64.975885,-15.711732,0.819224
-34.250780,-30.531460,0.781297
61.844678,26.669446,0.755879
43.875613,119.623464,0.457414
135.839760,5.459866,0.815881
156.296141,19.941490,0.751057
4.676485,-17.518324,0.135064
-84.429436,20.309974,0.338289
239.318649,-130.860536,0.131072
107.614602,72.551973,0.886593
167.602863,206.115902,0.309262
-127.224937,45.496129,0.782248
-150.367554,-192.675236,0.801762
47.584014,156.076733,0.671245
-13.850864,19.708460,0.608138
10.424403,88.197810,0.675907
-64.941268,177.558065,0.814780
271.969008,79.067004,0.966748
-68.909085,101.609133,0.409254
5.086367,-78.424590,0.528386
-15.479144,81.869127,0.986760
65.789314,148.047069,0.499658
-238.431551,-42.572771,0.392190
64.369285,-92.669611,0.851251
-98.483099,-49.146897,0.102058
39.280050,13.573104,0.273843
50.034314,-3.614181,0.468612
2.627404,-42.922471,0.781745
-122.179530,-36.851279,0.235274
183.077490,-177.586820,0.678867
109.965761,-5.792207,0.691261
-28.644411,139.256187,0.368352
110.144779,-78.229015,0.758557
221.574302,124.645666,0.902010
-18.469915,-42.924034,0.773648
46.684838,-93.480084,0.636401
-17.694453,-50.300012,0.091328
-6.636757,41.838511,0.161580
102.102553,-87.720096,0.728431
-141.870794,54.907881,0.550147
-4.874488,-71.645985,0.376002
139.110483,-13.644041,0.410796
-137.963463,132.467165,0.079196
34.132639,9.265807,0.601658
-145.875274,-155.959678,0.295392
-134.021471,-64.296311,0.244764
-102.293253,-23.774935,0.120935
-18.747043,100.346268,0.558768
66.456951,-51.681643,0.782246
-45.849783,-136.595532,0.202996
-49.223780,13.987572,0.602840
185.551175,-99.208933,0.024946
40.320541,-98.331047,0.074530
28.053592,-51.451401,0.385173
-89.554735,-62.929096,0.290584
122.896688,-26.445886,0.607671
15.610106,-25.991180,0.734662
284.268576,40.755709,0.704024
65.632471,18.971886,0.759794
68.074743,-96.128245,0.368713
41.616465,-63.382123,0.681716
215.168046,-2.945810,0.917448
-48.012976,-2.122643,0.217748
-145.528522,-13.796319,0.331935
110.881750,-11.629337,0.620341
-133.078404,-277.914059,0.723113
-55.768503,-49.005983,0.947733
-63.658008,-9.589615,0.370395
28.905422,46.207855,0.324567
15.840823,31.585319,0.023440
15.142439,14.170903,0.948847
-0.941610,5.618772,0.712303
-21.809044,151.327687,0.593660
-138.348535,-105.635000,0.889444
-140.169399,-58.723608,0.006302
32.663601,-19.634227,0.945335
38.142966,-134.063115,0.594514
-42.822803,-69.516534,0.894893
-58.646386,68.398900,0.907842
-70.932402,62.349367,0.264783
121.968493,6.652138,0.599545
-38.161570,57.979307,0.978290
-163.633750,-98.818027,0.134142
-71.679790,121.430730,0.576986
24.374275,172.014771,0.382270
157.575288,165.023770,0.252075
322.008264,35.480481,0.157307
121.309779,78.276360,0.044044
2.100283,109.152407,0.669776
-97.121347,-123.011201,0.147108
5.847236,108.471786,0.368115
8.149382,-303.804675,0.155938
10.717012,144.533385,0.216618
-198.369858,-129.522470,0.549414
22.466599,13.084805,0.323553
44.883791,3.644495,0.228348
-14.344111,-80.589172,0.909900
240.158347,136.242702,0.188245
96.142815,225.341062,0.850747
139.464959,74.622533,0.293600
3.857990,-63.416382,0.867132
11.134993,-11.345521,0.314141
53.707877,10.184170,0.828325
20.589882,-101.097526,0.519814
-31.283042,-56.966091,0.871794
-150.509061,-74.119332,0.493541
-162.581619,91.965891,0.858012
79.530895,-41.294526,0.558123
-62.594620,-46.636115,0.272543
-132.161579,23.787747,0.565303
40.196070,93.278716,0.273638
101.335197,-218.650564,0.449900
134.276815,102.328973,0.199864
-1.715119,0.286778,0.317137
10.044154,92.814467,0.331857
-111.323590,51.419937,0.720816
-55.355357,-290.226241,0.690301
-41.810639,50.842607,0.659878
53.414700,23.799956,0.954337
-134.624625,39.285034,0.492100
117.949025,83.780010,0.589659
-10.804061,157.624781,0.288021
70.410962,-50.336946,0.382844
-37.370676,-238.758425,0.914901
-193.496629,-63.359626,0.867646
27.067703,14.556242,0.788191
48.122087,-113.307464,0.115154
235.159049,-187.436387,0.469788
-135.775597,-92.484043,0.057794
135.947117,99.892324,0.392147
-52.825264,186.114749,0.582908
-67.120319,-168.013374,0.987154
40.906609,157.362950,0.019798
164.091763,16.863954,0.732090
28.415127,-61.242942,0.392089
-66.599610,137.652211,0.440185
0.512644,40.244536,0.035526
-129.876391,176.127358,0.985587
7.968490,-65.533033,0.117328
51.200601,-54.109122,0.553408
-160.898840,-208.793883,0.649575
31.886359,-174.553923,0.083352
52.434999,142.675790,0.918678
71.777100,36.938894,0.879465
37.075388,-201.416942,0.232891
102.409385,198.198151,0.616553
-2.455363,131.218979,0.556345
127.330118,-59.519972,0.014654
-138.879272,52.780850,0.693813
38.288474,84.395521,0.858478
14.139757,-28.960355,0.269595
-15.111303,74.297863,0.065702
66.549111,22.732471,0.227423
-114.009852,44.995026,0.331332
46.415858,-103.826311,0.264853
-159.119883,-200.717945,0.067419
59.387753,45.827228,0.411485
47.015571,-66.344601,0.465830
68.118243,30.815966,0.732418
44.654735,19.214871,0.415059
-94.723572,50.206317,0.418335
40.970567,-2.112646,0.531275
17.913429,11.675439,0.059331
82.998029,76.063126,0.324942
-139.637148,-19.969564,0.433536
-24.673502,-7.625154,0.764618
-123.838004,-56.917779,0.575789
71.212073,-102.459619,0.195153
94.177923,-53.182820,0.486838
-16.889782,-55.977119,0.708517
171.357390,-188.186477,0.505549
-62.905428,-92.495044,0.395053
-100.890718,-42.441501,0.012186
183.275581,-58.721550,0.161267
54.792026,-156.327739,0.046575
191.343638,75.878505,0.910028
-198.854082,-67.575470,0.185022
-37.184842,-84.100090,0.028603
74.586016,98.691395,0.135434
169.917621,-119.331255,0.294868
133.176422,98.504548,0.898225
-129.234124,4.409490,0.856755
21.561834,11.454585,0.454157
25.529024,-60.500960,0.516375
-231.571804,93.090600,0.422266
187.048487,168.013260,0.188953
20.916854,27.763933,0.110581
43.293295,-8.400461,0.365324
-49.549942,109.800194,0.692815
-7.627767,90.680037,0.476197
149.117030,99.269076,0.057794
-84.439696,-65.494281,0.229339
-29.495182,61.406448,0.931000
-151.102536,-45.121187,0.054597
261.474695,237.679401,0.178488
-57.509494,-189.566155,0.105195
-156.659166,-69.993757,0.471539
76.524761,149.535756,0.214803
1.227108,61.927864,0.526416
-104.992928,-73.110785,0.201395
-99.081927,-91.275919,0.426749
53.266803,138.175486,0.835889
-6.835458,-24.381502,0.066080
-74.931019,-54.549865,0.531097
-5.191218,-32.422132,0.114153
-46.677388,274.759915,0.205156
83.074495,-84.191362,0.084676
-188.378760,-21.749478,0.275359
-10.069592,-112.558849,0.107943
48.659907,-181.966228,0.517960
45.555976,-84.051031,0.287776
131.309103,-95.070180,0.943412
33.454678,-51.829667,0.224873
77.042295,205.243207,0.641332
-0.372098,-44.707467,0.530484
36.065156,-9.975375,0.538042
-217.031858,-74.271677,0.532041
1.477644,88.886782,0.348254
35.186011,61.492332,0.359671
-51.306531,99.230939,0.771224
-87.230447,61.853556,0.639871
-34.633440,37.443267,0.547973
142.536815,-44.360850,0.255098
77.028385,90.173753,0.603003
-189.768351,-54.922196,0.114044
-3.493598,-92.446832,0.217957
103.743883,-82.253088,0.494952
19.093127,140.230050,0.914268
16.581593,111.955583,0.375405
-81.066394,-48.039437,0.032134
-74.124715,221.753834,0.219710
35.625923,-100.525098,0.442507
-21.309037,4.145917,0.013125
-13.816475,-57.770267,0.772837
-63.611799,118.071213,0.350361
-73.937221,-7.006952,0.190596
-4.756679,-71.033686,0.885409
-55.434109,-245.302894,0.322285
-104.090825,35.131529,0.707119
-41.249824,49.957968,0.118298
88.634506,-21.632070,0.561944
-5.499929,114.145000,0.326778
143.378455,-57.946636,0.244285
-148.464895,90.971390,0.777965
-52.871889,-57.241702,0.526433
8.908554,-58.156140,0.747163
167.107967,-57.931470,0.431485
-30.714746,217.389465,0.583208
77.614383,95.163828,0.202895
-115.534621,119.661178,0.569444
120.845317,47.393615,0.318129
-51.031940,-88.830890,0.865312
11.687813,27.760569,0.541395
-45.990586,-138.887238,0.600676
0.249789,2.860959,0.805195
141.579570,-70.605681,0.901912
29.592393,-75.760249,0.928424
-54.817428,12.410241,0.839957
131.683660,-34.453006,0.077036
62.572396,102.206327,0.756983
48.712556,-70.559073,0.285498
32.475120,-70.527218,0.001396
-18.988991,-44.582593,0.671182
41.877858,194.291651,0.856881
-36.657702,-217.296247,0.583265
17.562544,-110.308350,0.064613
107.448925,6.545589,0.065231
-7.914798,-157.972512,0.830000
68.760108,-80.931718,0.997046
115.136270,77.767278,0.868324
23.737060,-120.096578,0.853043
179.696022,175.494683,0.046747
38.301125,68.944095,0.278614
53.523161,72.911672,0.273376
-272.296702,83.126826,0.953541
-98.923234,130.459185,0.173583
-8.206011,1.253499,0.232099
-6.159353,56.559086,0.819174
-144.049754,-186.985836,0.007035
156.088386,73.917038,0.660171
-31.016166,-23.622148,0.362304
66.990031,-249.861440,0.086030
77.364652,134.050860,0.765746
-194.080019,55.654593,0.914263
-70.720351,-34.648700,0.959657
99.132290,0.353898,0.129732
-119.596505,-125.156383,0.587561
46.654754,39.351988,0.830490
-2.746924,9.688276,0.641837
-15.644061,-93.725332,0.390237
-106.593884,-102.151365,0.379851
25.956711,-124.920249,0.926981
-2.868687,170.684618,0.644480
-97.777010,278.620769,0.341816
79.257711,-98.739909,0.088550
-80.918563,-61.866560,0.110434
7.710093,13.661868,0.042358
214.181117,-210.382274,0.307609
52.185255,70.015823,0.278732
-104.536894,-232.196396,0.680366
156.539382,-105.863640,0.811391
-36.965607,-77.239465,0.241271
150.351475,8.752866,0.491398
-158.197934,-0.830177,0.289986
71.828315,22.701119,0.606993
-52.454711,-81.597186,0.895749
-12.875469,85.393869,0.197053
124.131051,162.862863,0.624820
58.626344,-137.941054,0.297028
-13.353865,-142.902084,0.509848
-40.534728,-107.148382,0.530736
6.630632,111.442633,0.567719
-2.869009,-53.075559,0.192171
23.627834,34.276479,0.857169
19.766229,18.695548,0.919074
66.031144,229.125688,0.133738
-10.253309,67.154460,0.297024
121.700722,40.543390,0.810260
54.293779,91.103473,0.874738
62.134285,-104.542450,0.060436
-126.934101,189.240339,0.889897
25.378105,-26.350837,0.504767
-196.551881,-34.563734,0.528441
-46.150603,-6.148800,0.111220
17.366179,-113.895180,0.672168
-170.926875,196.727901,0.668231
117.371698,47.907700,0.958338
-36.507719,-1.185274,0.715534
-90.049429,-153.522711,0.392179
-174.748692,-79.185591,0.994542
-18.730420,-27.750643,0.063617
-31.077341,41.971124,0.866306
114.580721,5.282118,0.692844
-9.546003,14.879831,0.934862
27.232068,-145.778602,0.470750
83.596114,6.642809,0.941371
133.306620,-57.387391,0.378288
-34.262129,17.724735,0.673683
-88.221428,134.073194,0.226683
192.173184,-19.847833,0.526882
35.970923,-74.126636,0.272330
-179.974165,95.629178,0.335195
75.834259,31.676873,0.981119
154.197123,-76.386178,0.021829
75.419871,4.739694,0.376321
55.296040,-167.528831,0.625758
55.702166,10.522449,0.055998
-68.811078,231.951685,0.343426
-60.274612,92.093591,0.098124
134.735458,126.096792,0.118051
69.905686,31.708087,0.459179
115.266091,31.017123,0.242624
101.960169,-68.082117,0.978698
-18.771509,-96.107531,0.439511
27.238924,185.752462,0.475271
114.516642,10.358119,0.035373
133.603618,-26.643998,0.064247
68.402613,-38.385903,0.648198
-37.657572,-74.480457,0.066648
164.319900,-70.888717,0.887940
-22.575223,-29.266160,0.359922
-2.564326,107.233524,0.171683
29.444533,-7.791181,0.223393
-107.430088,114.940257,0.146179
26.914222,199.573468,0.892602
15.043907,-82.031150,0.845972
7.573086,50.443310,0.578517
110.332234,176.159968,0.163170
-72.892447,251.398400,0.324051
-155.273717,141.961856,0.208815
-256.790752,110.392710,0.963478
53.560646,265.205645,0.489196
115.588429,-134.487708,0.287126
-57.860781,-33.469924,0.027746
-27.172932,23.274041,0.467091
70.079100,68.832585,0.982961
53.988249,93.451832,0.730594
-121.492442,-72.593883,0.643743
-34.749405,97.190590,0.459215
-142.873691,93.769605,0.900426
-64.619644,98.758497,0.053426
-15.630399,70.713651,0.864653
-108.373663,-105.897503,0.387480
-134.479025,20.223364,0.270332
-23.867018,33.113521,0.568404
-55.714177,38.267866,0.274694
-32.933094,-65.091361,0.857354
-150.615929,17.049199,0.762963
268.326789,28.966513,0.313827
-112.977509,233.034729,0.204812
64.692820,-36.958058,0.236151
-9.695097,29.632306,0.988593
-117.245206,-129.917254,0.241059
-76.083114,-45.787329,0.839962
-64.017165,-236.257045,0.324083
-69.547349,47.105832,0.687343
40.600800,-89.283535,0.206763
-55.007077,-25.864002,0.151039
-263.658700,61.424843,0.561583
9.604837,33.597056,0.669034
134.220286,3.888599,0.026908
48.437162,76.577613,0.208568
57.869410,-11.438647,0.788551
101.114486,40.179013,0.845968
-124.910230,-128.259883,0.994941
17.953537,-109.808756,0.801232
-116.504639,66.116408,0.988156
-26.553230,23.651283,0.793072
26.812323,64.598978,0.935478
126.100955,-247.795496,0.971588
35.941925,-41.787340,0.609758
68.185508,-47.310818,0.808038
-160.912238,-41.745852,0.047407
59.644413,-0.506143,0.076046
-201.032855,-12.003452,0.723361
-4.452650,73.347251,0.485369
22.311164,113.477067,0.130130
165.706870,-79.531772,0.455801
163.875610,108.624405,0.738458
18.491864,-310.671017,0.164369
134.941043,62.688708,0.774452
-18.186866,-71.574550,0.124388
84.430821,-49.665790,0.854509
-97.750174,-31.897414,0.443776
-116.095949,-64.274806,0.157158
151.086760,-60.101629,0.275046
-174.749642,169.305222,0.451844
37.835642,-19.974609,0.848076
68.404065,57.545909,0.962974
-63.148201,-148.448094,0.003349
-264.800657,19.352174,0.666490
-158.631971,-178.343351,0.972981
-54.929476,-168.980341,0.048701
-107.604678,132.572457,0.130372
-71.921791,-216.577816,0.467718
76.436735,-67.734994,0.647544
-63.309958,-21.811865,0.260376
50.285793,150.094049,0.009076
-104.104488,-86.032675,0.852481
7.562796,111.876495,0.004181
89.737471,13.088594,0.563356
78.967500,61.351965,0.103616
69.510285,-65.001383,0.419653
82.349954,-3.169345,0.398254
126.732334,-18.675363,0.914481
-20.678099,102.916449,0.542468
132.703858,92.554621,0.573444
-72.910489,111.720967,0.550158
-67.931164,-98.499546,0.294206
-149.809574,-1.234377,0.261419
148.469053,220.011143,0.044766
-91.791740,-116.872272,0.605601
-198.036555,14.641493,0.299894
-37.953887,-128.292129,0.595504
-47.191006,-199.771375,0.115670
-85.091834,33.980195,0.030818
-81.392327,-131.336351,0.605278
-88.702530,68.607520,0.421316
-82.522957,-110.587564,0.554084
-34.579382,-102.493196,0.142036
-129.214357,-17.983881,0.947122
-63.808157,-20.867286,0.310431
31.404425,-123.545135,0.561899
-30.960124,-1.243257,0.804871
-35.448227,-67.778379,0.258353
-13.552278,-43.869308,0.933822
-91.032912,95.637651,0.245233
-11.759204,226.170241,0.810458
-91.461006,-95.919671,0.999971
-31.913884,-48.899392,0.290925
44.764472,-91.536558,0.952557
83.068946,57.530994,0.335300
-10.695363,195.001764,0.034057
-79.480933,27.736876,0.817606
-118.920860,66.155255,0.020956
-97.271241,314.203262,0.153726
-35.560767,-55.408577,0.313650
-74.616494,46.060808,0.142814
25.690653,-36.789113,0.893207
14.933474,1.650436,0.722363
83.726418,12.128099,0.970136
92.083221,-63.439887,0.572471
49.221128,116.833442,0.555082
-36.109669,57.007908,0.614536
66.449917,91.495713,0.144274
34.710351,-157.439477,0.033697
-58.179105,-121.392627,0.969407
-2.395559,-23.912243,0.104449
9.746599,92.116018,0.212513
-91.678585,98.501045,0.642572
-41.946381,-152.147288,0.500512
-23.310999,267.686656,0.484169
0.593285,21.606510,0.262151
-113.041928,-70.684448,0.960638
-67.073842,65.715711,0.260333
48.789560,11.763221,0.094041
8.907320,100.451465,0.628422
-133.159893,-36.114855,0.949815
-62.016628,-103.622623,0.558113
57.978147,-79.044651,0.461094
-63.593119,-101.891684,0.884082
206.672007,-252.773008,0.481894
180.442069,60.041136,0.174474
-122.596152,-30.385222,0.989213
69.423702,83.951756,0.744223
25.960233,187.755281,0.895390
-109.777471,-106.485250,0.851281
264.421131,108.259249,0.244011
76.055937,-51.460746,0.207694
-83.435785,-116.633939,0.888359
-48.675701,107.337374,0.721167
-78.673573,-24.215163,0.038380
104.080982,-101.250819,0.627263
110.572113,-31.696390,0.978526
-94.989166,-76.930433,0.824036
81.784770,-87.443032,0.578650
-166.525553,-32.872225,0.317133
28.632835,15.703212,0.804559
129.376501,-235.138815,0.325130
113.057550,-164.468893,0.749538
-37.993521,71.924260,0.498594
139.385086,35.637444,0.219805
116.893849,-13.923419,0.901178
117.448949,10.249781,0.610926
-97.793059,62.632689,0.391017
-8.791120,56.603769,0.882955
-62.332577,-55.943110,0.608139
-34.444903,100.540972,0.903345
117.424563,160.183910,0.901410
129.223302,-17.423461,0.050010
-122.491085,7.515208,0.595969
114.652056,-80.068183,0.006682
148.223842,160.775296,0.675479
20.113392,-132.670511,0.191845
-130.802246,-23.321851,0.204029
241.552929,-101.577515,0.059248
59.608126,28.836544,0.708057
183.191946,-77.895954,0.267913
36.264881,57.753534,0.198380
58.611608,82.001752,0.988894
40.839302,-90.218766,0.693693
174.366456,-128.407338,0.785435
203.238912,-93.066072,0.864029
-105.482692,-6.723871,0.579274
-51.626906,56.086741,0.157857
120.759223,-43.881477,0.158764
42.274885,-47.121189,0.083970
19.736141,34.704086,0.966717
67.483304,6.955538,0.305758
245.252260,100.025390,0.238868
12.278926,-108.889158,0.762968
-107.081105,8.669846,0.203296
-47.192376,-251.012170,0.574131
-37.086879,-2.369904,0.220943
20.585723,20.817414,0.611985
-98.130715,-84.303638,0.307540
38.774366,119.711769,0.606421
65.935556,70.532080,0.436376
-30.602665,-122.356491,0.546164
52.233551,-81.622042,0.596824
-20.491358,-189.737157,0.926533
96.078893,114.355852,0.189323
-109.738598,33.278754,0.333192
1.943428,91.747384,0.958599
-9.820225,-163.693195,0.594560
-110.677582,-134.300273,0.313803
1.336325,-68.047508,0.060197
65.487177,75.828048,0.208324
126.703340,-52.103843,0.554018
76.272483,-145.847006,0.436629
166.685718,-2.358249,0.702864
13.045015,-3.841146,0.311064
-177.090385,-82.091104,0.264099
-77.750921,-26.851184,0.409147
-73.401491,83.743056,0.986995
-63.371057,79.600732,0.838006
38.319845,-104.077195,0.520893
29.240878,92.341297,0.524710
42.345597,172.410362,0.491717
-240.112185,-0.096876,0.986428
-161.343695,-119.615439,0.693081
-142.418110,74.482361,0.053013
-181.719499,-4.470242,0.165635
-126.850268,-146.040783,0.179856
63.776345,-32.889200,0.861559
-46.040754,-67.138037,0.108884
45.816316,21.313644,0.265310
-72.851040,38.005783,0.089872
-132.104743,-110.626977,0.660986
-98.559677,74.421076,0.503268
-69.959811,-68.471035,0.411487
-149.537427,-164.636388,0.684708
-103.317193,-0.637396,0.840399
-72.833721,-14.731405,0.205637
89.866483,82.599732,0.351191
8.894688,202.862091,0.194704
8.579615,212.415863,0.042812
-4.772834,-46.887472,0.057501
70.927698,-216.460901,0.148237
94.412852,85.910428,0.120146
-52.847790,116.448342,0.041511
-38.714785,113.296090,0.963634
79.434874,25.889838,0.086741
-249.128760,-26.351746,0.277397
-3.855035,41.283307,0.768169
173.489338,-65.251294,0.400786
86.379367,168.643095,0.704684
67.568831,61.393815,0.074431
-81.053409,-126.401932,0.325521
129.421908,-24.091792,0.454661
-16.757956,200.742114,0.150967
37.029688,44.533776,0.543189
-33.864804,-11.325695,0.374258
-83.392769,-24.399211,0.050928
-20.585050,-221.135605,0.408404
-63.963225,-33.786386,0.034351
-175.499115,107.805500,0.097353
-267.879563,27.135204,0.834934
59.777626,75.015925,0.579920
-168.482953,56.529788,0.093489
3.361839,-63.422492,0.512031
-117.907213,150.894293,0.349338
-163.351067,81.822915,0.316512
-2.370887,-50.209493,0.898670
-58.817382,-28.729182,0.714106
57.675482,27.307914,0.604019
151.914969,51.450040,0.005545
82.291744,143.018351,0.417352
-106.529771,0.494196,0.919710
37.565416,56.115394,0.421557
-19.433842,170.672330,0.147660
-97.096498,188.507449,0.899378
-69.606857,89.340280,0.742919
38.519533,-128.455369,0.002640
52.095857,-66.160264,0.877803
-85.054781,-95.529903,0.399540
76.456785,-7.353978,0.919526
118.976861,-96.828823,0.464556
43.741841,-51.052233,0.116381
-78.834279,53.415778,0.342176
17.013214,-17.357410,0.370073
-41.388463,-62.011359,0.944886
48.334489,-75.509789,0.488032
11.973370,-120.925909,0.246342
47.299786,-147.288249,0.397281
-27.860979,118.540175,0.513240
-198.472306,83.973003,0.778969
-31.968552,-4.790521,0.555533
-27.321752,142.156406,0.452686
72.492626,-88.733517,0.580161
-48.960078,-72.669962,0.634552
98.611729,95.060466,0.474206
-45.048521,7.574434,0.031760
-6.750864,129.277191,0.710768
128.063849,94.478640,0.043223
-123.566608,82.366426,0.063702
-241.323803,83.258412,0.891790
153.056091,-9.047437,0.182575
-253.815539,40.952165,0.930882
-132.041956,-87.687036,0.340477
92.683815,202.441878,0.257597
-73.394921,-66.109676,0.445359
25.205014,46.743555,0.089506
43.378771,76.877763,0.514481
-95.371612,56.359096,0.116210
-45.749956,-2.382562,0.783507
-2.156650,-120.979735,0.391982
-266.903540,-60.096399,0.981025
-2.142480,-36.109744,0.659520
-143.248643,-60.050570,0.497591
-158.516131,-72.851494,0.686636
213.859602,-301.858979,0.896659
3.580022,-0.691441,0.159313
-224.284118,4.588813,0.536073
99.201767,-24.616302,0.743969
-13.183209,120.608581,0.789974
169.724299,-113.668697,0.140623
-61.442952,24.714214,0.170344
121.935370,13.702242,0.364487
12.980661,-123.358561,0.157634
62.709722,-9.332297,0.695668
-85.287467,145.799495,0.630467
21.968344,26.154372,0.398964
214.111299,-21.150886,0.501287
-183.268682,122.397335,0.476085
-23.871091,65.930995,0.041093
82.785885,106.551522,0.235532
5.575246,-193.778959,0.606987
6.939893,-3.466409,0.140086
13.117759,35.385369,0.300980
-19.168609,-19.131819,0.656457
31.893270,-6.218236,0.632525
-24.110325,-91.542120,0.009176
-13.061817,24.329843,0.412413
-29.212049,114.379624,0.531200
-71.875132,-158.534599,0.489036
-49.681975,-46.368319,0.624654
220.826348,-60.031408,0.718059
61.130489,179.596336,0.805485
63.332818,18.578074,0.358748
-109.672023,-51.901302,0.483058
-133.686886,-91.976392,0.322356
222.721217,9.838635,0.352111
174.284062,-56.873330,0.654401
-1.101494,-118.921647,0.198165
-145.533242,176.383756,0.911292
-109.505696,-20.609378,0.011141
-76.567874,-28.398471,0.259574
7.944784,21.553604,0.808529
10.516249,-96.236515,0.789750
-83.328249,-252.489353,0.534144
-38.340256,0.650835,0.168951
7.854988,-94.903682,0.106796
-73.909583,108.180609,0.849334
-140.085145,-197.647885,0.343904
57.193183,2.353304,0.870667
69.662599,60.108784,0.865944
7.006613,-178.952872,0.312366
86.357378,-109.222779,0.181838
-69.418206,109.995371,0.632381
39.773644,133.667524,0.494824
107.130660,184.353790,0.686870
5.989832,29.956023,0.943855
-135.554591,-96.669736,0.721655
77.892219,-12.795506,0.539386
-165.284724,72.098215,0.049373
-10.262573,55.063137,0.938665
-37.792096,-39.629367,0.851175
-53.062244,-9.849140,0.598196
155.370270,-4.985413,0.919965
94.566079,-9.580340,0.238211
-105.571453,104.675032,0.618658
90.177119,27.048756,0.146802
139.785221,139.606043,0.413801
93.081241,17.820506,0.604551
90.298164,62.002008,0.590090
-188.890467,88.347007,0.796796
4.288211,20.382384,0.864656
-9.294809,137.627478,0.492746
54.751234,101.285615,0.743972
-13.891354,4.811439,0.993031
128.293176,30.382969,0.761884
-68.293597,-24.567875,0.536257
-24.630059,13.912487,0.574950
0.655126,-80.930696,0.788008
-60.086938,-41.791948,0.540406
-12.051465,-29.612930,0.596082
162.053811,57.575678,0.957401
12.785386,-27.922626,0.023215
-35.095664,-103.880057,0.248692
105.240828,67.573463,0.430533
34.727495,132.954197,0.846873
214.686342,185.670630,0.097340
-118.587457,149.866781,0.840267
66.377347,156.005552,0.020920
-100.073823,-0.162202,0.483297
-3.711892,-61.098479,0.265682
-12.209700,-241.822760,0.146923
-74.204034,161.649820,0.313707
55.096850,68.846607,0.439339
-108.635143,127.277988,0.568034
16.092606,179.385470,0.161322
-79.472817,36.731020,0.788280
-140.554662,-59.196677,0.679693
-74.551119,-22.364910,0.031476
96.541481,40.362442,0.306740
138.897413,65.990212,0.690042
67.672624,63.953210,0.421148
50.748959,-82.001676,0.802024
-112.194030,-13.796854,0.322499
-73.897480,-12.324011,0.570900
-48.790648,-65.790323,0.385939
79.095623,-36.910046,0.261123
119.656168,87.284167,0.948505
38.002906,-0.563268,0.883224
47.810686,140.023727,0.350009
50.732188,57.442098,0.291191
-42.590610,-180.227834,0.589678
-9.585554,-95.582484,0.671258
0.181172,91.330530,0.751526
-174.164995,49.027578,0.588530
-63.146351,279.752132,0.394620
-25.346884,283.426722,0.867707
207.942561,81.093346,0.333444
54.703515,-95.891497,0.770730
-55.394392,-176.954414,0.745864
-116.833327,-164.076445,0.000813
-105.312914,32.603728,0.887081
3.276212,-62.189612,0.978163
-31.217642,-41.682720,0.674303
-371.417883,-94.221171,0.278596
144.946255,-152.678238,0.014091
-120.118126,-19.234519,0.066142
88.613844,88.405685,0.132098
-83.657286,-58.851088,0.007877
-24.620480,-153.117932,0.835134
-54.524039,-13.650007,0.006527
-115.589973,-54.562044,0.124815
85.969529,-56.072546,0.555023
-42.904895,105.463515,0.055962
-97.644190,26.716588,0.938981
43.386855,47.938086,0.652035
-5.974150,167.485739,0.267757
79.044938,-7.615438,0.102314
-146.007357,-39.359076,0.032334
-14.249090,104.442396,0.663550
113.074987,-1.322609,0.311217
48.377176,57.237638,0.226788
-59.745099,52.413027,0.960836
-171.456748,168.362468,0.863352
39.012065,46.843187,0.110477
-1.853469,-144.410869,0.158141
-22.940922,-30.101756,0.326436
91.486942,26.812113,0.173647
17.799148,60.795669,0.101222
6.712238,-118.466003,0.501368
125.716125,22.996172,0.264913
-85.354094,-65.800285,0.700978
68.749388,-60.408523,0.469319
-14.346697,-0.150854,0.787168
-8.233806,-21.850297,0.160679
-106.040810,-87.850196,0.712647
163.312406,37.000988,0.190112
-33.171695,30.013100,0.509552
-183.435035,-275.751229,0.666859
93.076881,-22.317388,0.996183
-57.551567,-34.375254,0.613997
61.247087,68.715251,0.774735
128.332604,18.899807,0.757903
57.654591,68.160620,0.141082
-109.405153,94.130048,0.071382
-44.188345,-18.564236,0.240600
-121.269555,25.787141,0.659837
186.955043,0.317658,0.340381
158.687040,109.682156,0.876862
-53.822760,-112.398125,0.108312
-44.463544,-74.967467,0.648222
