-3.854253 -1.713489 0.000000
-0.486883 0.887820 0.000000
-3.756411 1.224081 0.000000
-1.394008 1.291359 0.000000
-2.245322 3.721837 0.000000
1.447229 2.296027 0.000000
-1.588893 0.229202 0.000000
-3.027473 -1.096903 0.000000
2.029356 2.875736 0.000000
1.464559 1.624051 0.000000
-1.798485 -2.302093 0.000000
0.832360 3.474931 0.000000
4.859281 -2.504337 0.000000
2.304218 2.980709 0.000000
2.708210 0.036198 0.000000
0.860333 2.225728 0.000000
-1.766619 0.874694 0.000000
0.863956 -3.315828 0.000000
-1.087459 -0.424471 0.000000
-3.455352 0.701207 0.000000
2.025347 1.674835 0.000000
1.522175 -1.668402 0.000000
4.512731 2.893893 0.000000
1.310628 -0.826018 0.000000
-4.001637 -2.488094 0.000000
2.517636 -1.193899 0.000000
-3.432681 -3.565266 0.000000
0.411601 2.806461 0.000000
-2.182512 2.440203 0.000000
3.287862 0.538059 0.000000
-4.987466 2.248013 0.000000
-4.477626 -2.696271 0.000000
1.887725 -3.121331 0.000000
1.703675 -2.687028 0.000000
-1.427410 -3.269588 0.000000
-3.575620 3.425313 0.000000
3.274168 1.607580 0.000000
-2.637044 1.645063 0.000000
0.647691 3.748766 0.000000
4.245397 -0.665990 0.000000
-4.278267 1.489358 0.000000
-0.277967 0.224891 0.000000
3.197221 -0.627922 0.000000
1.653064 2.673950 0.000000
-2.918982 2.942270 0.000000
-2.794624 2.810471 0.000000
-3.008543 -1.742970 0.000000
3.742360 2.665368 0.000000
-0.227216 1.564437 0.000000
3.639265 -3.049861 0.000000
3.271405 2.014783 0.000000
-0.907356 -3.879285 0.000000
-0.395146 0.195820 0.000000
0.410188 1.416286 0.000000
0.309356 -1.602336 0.000000
3.798879 -1.161819 0.000000
2.666577 -0.105434 0.000000
-3.419908 1.027185 0.000000
1.582428 -0.067296 0.000000
1.980321 1.180810 0.000000
-2.134596 0.138817 0.000000
-4.238794 -2.467732 0.000000
3.480761 2.889345 0.000000
3.021230 3.076173 0.000000
-3.160700 -2.356995 0.000000
-3.963855 -0.331902 0.000000
3.561504 1.744648 0.000000
3.122252 0.710781 0.000000
-2.086013 -3.635930 0.000000
-0.081383 2.547544 0.000000
-2.314669 -3.637686 0.000000
-4.690592 -0.064634 0.000000
2.326871 -3.243708 0.000000
-1.362932 3.452542 0.000000
3.137575 3.283623 0.000000
4.139858 -0.158137 0.000000
-4.082304 0.136106 0.000000
-1.206190 0.211095 0.000000
0.097613 -0.761523 0.000000
-3.489633 -0.625194 0.000000
2.537135 1.998465 0.000000
4.358235 3.141708 0.000000
-0.075731 -0.594435 0.000000
0.803562 3.410073 0.000000
0.871257 0.040724 0.000000
3.668143 1.057459 0.000000
-1.054346 -3.858534 0.000000
3.039010 0.634034 0.000000
1.162739 2.739280 0.000000
-2.166758 -2.810094 0.000000
4.515640 -2.531212 0.000000
-1.673713 0.883986 0.000000
1.790909 -0.790831 0.000000
3.459967 3.668304 0.000000
-2.328585 2.308087 0.000000
0.520266 3.617802 0.000000
3.028118 3.493219 0.000000
-2.327961 1.710328 0.000000
2.332387 3.848194 0.000000
-1.634183 -2.290762 0.000000
-1.946275 0.000000 -2.122619
-0.321569 0.000000 -0.115430
1.934795 0.000000 -0.580973
-0.785820 0.000000 -3.494900
2.200572 0.000000 1.703527
4.015175 0.000000 3.300429
-2.782583 0.000000 3.818941
1.990443 0.000000 -2.196152
3.127369 0.000000 0.377459
-1.538333 0.000000 0.244133
-1.868171 0.000000 3.386377
-4.697331 0.000000 -1.036203
-2.956211 0.000000 -3.655033
-3.153067 0.000000 0.165567
4.467504 0.000000 -2.674628
-0.942439 0.000000 -2.909033
-1.559582 0.000000 0.281162
1.985177 0.000000 2.868967
-1.007722 0.000000 -2.998319
-0.444931 0.000000 -3.913828
-2.853155 0.000000 -2.362008
-4.001175 0.000000 -1.131699
-2.693460 0.000000 3.157673
4.663157 0.000000 1.319418
4.342458 0.000000 -2.394110
-2.466474 0.000000 0.703795
0.424131 0.000000 2.369857
3.186340 0.000000 -0.529560
-2.174781 0.000000 1.649838
3.906957 0.000000 -2.471992
1.310772 0.000000 -2.246395
-0.275556 0.000000 -3.452357
-1.366920 0.000000 3.050557
4.464819 0.000000 0.786777
-0.701857 0.000000 2.047142
-3.494503 0.000000 2.223620
0.555388 0.000000 -0.628338
-1.124344 0.000000 2.702515
2.919637 0.000000 -0.260285
-3.706965 0.000000 3.724595
-2.140495 0.000000 -1.831548
4.007950 0.000000 -0.108409
2.994502 0.000000 -2.694604
4.241849 0.000000 1.272967
-2.757934 0.000000 0.505577
2.503072 0.000000 -3.164173
-1.113839 0.000000 2.086371
-1.183443 0.000000 -1.547790
1.607588 0.000000 2.856160
-3.796690 0.000000 -2.724594
2.946283 0.000000 -1.241642
-2.082568 0.000000 -2.504917
1.965425 0.000000 3.139641
4.585649 0.000000 -2.432408
-4.582497 0.000000 3.410015
1.598101 0.000000 2.608923
-1.565359 0.000000 2.633957
-2.128521 0.000000 2.034694
-1.938199 0.000000 3.802292
-1.260920 0.000000 1.536702
3.594908 0.000000 -3.154209
3.175326 0.000000 1.547688
2.291678 0.000000 2.869312
-1.494932 0.000000 -2.255315
4.024249 0.000000 -2.119662
1.954573 0.000000 3.683630
-4.336671 0.000000 2.512901
2.642323 0.000000 2.587352
-2.883317 0.000000 0.609318
-3.647062 0.000000 1.478312
2.673936 0.000000 1.553443
3.876482 0.000000 2.677945
-4.935411 0.000000 2.306181
-3.385482 0.000000 -0.951023
2.989624 0.000000 -1.146623
-0.382778 0.000000 0.335473
2.465614 0.000000 2.381434
-4.739787 0.000000 -0.823705
-2.632561 0.000000 2.840033
-4.446063 0.000000 -0.385344
-1.393265 0.000000 -3.024074
-0.854406 0.000000 2.064142
-0.691744 0.000000 -2.152934
2.550373 0.000000 1.433964
3.791101 0.000000 0.694462
-3.795271 0.000000 3.032513
-4.827015 0.000000 -1.390257
-0.624259 0.000000 -2.304738
-0.382717 0.000000 -0.649943
4.403218 0.000000 -1.209648
0.957767 0.000000 2.964583
-3.085757 0.000000 1.481108
-3.439971 0.000000 3.122015
-0.805865 0.000000 2.235798
1.761202 0.000000 2.376321
-2.251704 0.000000 -0.044416
4.603568 0.000000 -3.823560
3.937583 0.000000 2.809244
4.914627 0.000000 -2.775078
2.005878 0.000000 1.394064
0.000000 -0.210829 0.693864
0.000000 -4.613810 2.987043
0.000000 -4.011969 -0.827699
0.000000 -0.677301 2.570830
0.000000 -2.065509 -3.415454
0.000000 -3.685667 0.086793
0.000000 4.425668 -3.909755
0.000000 -1.512707 0.066014
0.000000 4.758121 -2.379839
0.000000 1.717884 -1.965672
0.000000 1.349537 -3.843172
0.000000 -4.647809 -2.822826
0.000000 -1.119527 1.126272
0.000000 2.654970 2.417174
0.000000 -4.537407 -3.921623
0.000000 -1.374324 0.903748
0.000000 -3.428766 3.432465
0.000000 -4.238653 -3.395396
0.000000 -4.016160 0.862826
0.000000 2.761349 -2.188544
0.000000 -2.737253 -0.574325
0.000000 0.402972 -1.209965
0.000000 2.319267 1.073862
0.000000 3.111361 1.954342
0.000000 -3.289657 -0.515349
0.000000 1.866135 1.358987
0.000000 -2.509664 -2.479524
0.000000 1.252930 -0.688790
0.000000 -2.555011 -1.652060
0.000000 -3.627043 0.904015
0.000000 -1.767163 -0.300726
0.000000 -1.497641 -2.207894
0.000000 -4.944899 3.974561
0.000000 1.956942 -2.512913
0.000000 0.497320 -2.164220
0.000000 3.894224 0.989100
0.000000 3.491911 3.207829
0.000000 -3.227192 2.502651
0.000000 -3.106576 -0.609638
0.000000 -2.351422 0.624182
0.000000 -1.134348 1.221525
0.000000 -3.773814 0.455053
0.000000 -3.909094 -3.876109
0.000000 4.578652 -0.704731
0.000000 -4.102249 -1.345229
0.000000 1.023054 2.143250
0.000000 1.018955 -1.964276
0.000000 1.185752 -0.013133
0.000000 -1.708556 -0.825568
0.000000 2.098768 0.646916
0.000000 -3.019517 -0.982812
0.000000 -0.523281 2.057635
0.000000 -0.010321 -3.603786
0.000000 0.695036 0.793468
0.000000 1.485518 -3.325332
0.000000 -4.852120 -1.465190
0.000000 3.624127 -3.435085
0.000000 -1.792961 1.545312
0.000000 4.080905 3.178772
0.000000 1.048617 0.092147
0.000000 1.208954 1.319270
0.000000 -1.171755 -2.704080
0.000000 4.283069 -3.643917
0.000000 0.238791 1.748213
0.000000 -0.153249 3.019650
0.000000 4.130655 -3.354454
0.000000 -3.368961 -1.431590
0.000000 4.977860 -2.082162
0.000000 -0.941077 2.256705
0.000000 -3.747184 2.792728
0.000000 1.029268 3.159172
0.000000 -1.297630 -0.264969
0.000000 3.872690 -3.039677
0.000000 3.354114 -2.208692
0.000000 1.223350 2.325776
0.000000 3.343307 0.767090
0.000000 -4.884282 2.495295
0.000000 0.041468 0.902611
0.000000 -2.651751 2.902630
0.000000 -1.938975 -3.472719
0.000000 0.576857 -0.663351
0.000000 3.334879 -1.582143
0.000000 -4.773128 -2.390357
0.000000 4.904073 3.226785
0.000000 1.060038 -1.209786
0.000000 2.470930 0.111640
0.000000 -2.109407 -1.048406
0.000000 -4.256563 -2.545405
0.000000 2.544994 2.728178
0.000000 3.168185 -3.088482
0.000000 -4.942744 -2.841337
0.000000 -3.172350 -3.762991
0.000000 -1.020561 -3.753943
0.000000 -4.078019 -1.336744
0.000000 0.573509 -1.702853
0.000000 -1.028344 -0.880751
0.000000 -2.946008 0.845847
0.000000 -1.358724 1.653151
0.000000 -1.052347 2.473662
0.000000 -0.206011 -2.951113
