2.071370 -1.690101 0.000000
-0.972671 2.918681 0.000000
2.103711 3.208382 0.000000
-2.263666 -2.698651 0.000000
-3.962484 -0.178349 0.000000
-1.721398 -3.614460 0.000000
0.124501 2.376474 0.000000
0.542957 1.565246 0.000000
1.273656 -2.285609 0.000000
-4.834461 1.309474 0.000000
3.622501 3.641244 0.000000
-4.647163 3.785998 0.000000
2.915501 2.070033 0.000000
-2.623035 1.163520 0.000000
1.414500 3.612036 0.000000
-1.944170 1.991497 0.000000
-2.762022 -2.125580 0.000000
4.302291 -3.313011 0.000000
4.754369 -2.425871 0.000000
-2.142342 -1.833599 0.000000
0.224699 2.892615 0.000000
0.688556 2.910544 0.000000
0.545598 2.520536 0.000000
-0.428749 3.437319 0.000000
3.544973 -0.728127 0.000000
4.488057 3.674583 0.000000
-1.617589 -2.617120 0.000000
-4.890153 1.479700 0.000000
2.121658 -2.419475 0.000000
-2.937654 -3.392955 0.000000
-3.700686 2.684494 0.000000
2.460944 2.959108 0.000000
-1.971522 -2.994463 0.000000
-3.613543 1.522429 0.000000
-2.257631 -1.192403 0.000000
3.208655 0.524137 0.000000
2.292680 -0.204488 0.000000
3.576193 -0.784936 0.000000
-2.504207 0.401542 0.000000
2.864915 -1.320948 0.000000
-0.330912 -0.563131 0.000000
3.020361 3.534282 0.000000
-4.269658 -2.186485 0.000000
-0.187394 1.236110 0.000000
-2.933800 -1.078489 0.000000
-0.030541 -2.315200 0.000000
-1.029468 3.452236 0.000000
3.452175 -3.549819 0.000000
2.337077 -2.270761 0.000000
-1.065161 -2.793355 0.000000
-0.179730 -2.241529 0.000000
-0.926473 -0.925937 0.000000
-3.939142 -1.986783 0.000000
3.639446 -3.883793 0.000000
-2.669320 -3.013608 0.000000
-4.213410 0.198388 0.000000
-1.921096 -1.341624 0.000000
-4.159814 -2.869102 0.000000
0.335597 1.177629 0.000000
3.884060 3.772310 0.000000
-4.992310 1.954499 0.000000
0.101969 -0.874241 0.000000
-4.512082 1.789991 0.000000
-2.182014 -3.864474 0.000000
-4.052658 -2.185458 0.000000
2.188755 -3.299225 0.000000
4.518527 1.797018 0.000000
-2.803885 3.675482 0.000000
-2.872211 2.629937 0.000000
4.776155 -3.294416 0.000000
-2.190374 0.913393 0.000000
-1.217440 1.050393 0.000000
-0.061865 -0.673981 0.000000
-2.915805 -2.595916 0.000000
3.086562 0.099300 0.000000
-3.207135 2.180098 0.000000
2.040855 -2.448376 0.000000
-1.654918 -0.866425 0.000000
-3.377187 1.921068 0.000000
1.319860 0.317608 0.000000
2.543522 -2.128511 0.000000
3.357362 0.298955 0.000000
-2.112068 0.980869 0.000000
3.652950 -3.352902 0.000000
-2.462151 -1.750861 0.000000
3.951399 -2.509567 0.000000
-1.453428 -1.674461 0.000000
-0.424556 -3.061242 0.000000
4.604977 0.729131 0.000000
-3.702701 3.620606 0.000000
-4.686146 -0.967380 0.000000
3.333367 1.301630 0.000000
0.598848 0.552553 0.000000
-2.641288 3.043627 0.000000
2.496016 -1.324189 0.000000
-0.598880 2.199154 0.000000
4.524908 1.341347 0.000000
2.569125 0.849526 0.000000
-0.226906 -1.985908 0.000000
-0.338429 0.924655 0.000000
0.000000 3.825883 3.596300
0.000000 0.813606 -3.701955
0.000000 -3.197068 2.423775
0.000000 -1.984563 -1.841898
0.000000 0.088718 0.660506
0.000000 3.623457 -1.813703
0.000000 -4.702601 -0.240495
0.000000 -1.824157 0.094529
0.000000 4.001797 -2.245304
0.000000 -3.668480 2.178718
0.000000 1.045491 0.951338
0.000000 0.307397 3.663449
0.000000 -1.322781 -1.176370
0.000000 -2.672284 1.270596
0.000000 1.880577 -1.559454
0.000000 -3.913923 0.293591
0.000000 1.288333 -0.840432
0.000000 -3.878814 3.192939
0.000000 -3.275272 -0.989711
0.000000 1.422309 -2.085549
0.000000 0.836165 1.677887
0.000000 -3.069780 1.029285
0.000000 -4.414472 2.545761
0.000000 -2.632127 -0.438812
0.000000 1.384666 3.715423
0.000000 0.487485 0.002732
0.000000 -4.141334 -0.382904
0.000000 -1.469377 3.865149
0.000000 2.833417 -0.737018
0.000000 -1.276979 -3.356528
0.000000 -3.010844 1.135653
0.000000 -2.645353 -0.987601
0.000000 -2.378821 3.642645
0.000000 -0.534695 -1.490094
0.000000 -0.504134 0.809229
0.000000 3.323371 -3.995102
0.000000 -3.727783 3.176663
0.000000 -4.729323 0.028426
0.000000 4.648698 0.412019
0.000000 0.266090 -3.164438
0.000000 3.092682 0.026026
0.000000 -2.910132 1.704678
0.000000 -2.510211 -0.087975
0.000000 -2.017380 -1.766246
0.000000 1.834136 1.224118
0.000000 2.818120 3.909058
0.000000 0.241164 -1.422324
0.000000 2.911425 2.252647
0.000000 4.658640 1.690870
0.000000 2.146853 -2.350767
0.000000 -3.192609 3.019793
0.000000 -1.528871 -2.560257
0.000000 1.927846 -3.950436
0.000000 1.636033 -2.111856
0.000000 -3.932284 -2.689030
0.000000 -4.818307 -2.909275
0.000000 0.941222 -2.922747
0.000000 2.454875 3.713397
0.000000 -2.953922 -1.767866
0.000000 2.066770 1.777114
0.000000 -1.210633 1.280590
0.000000 4.334056 -1.359459
0.000000 -2.455814 -1.034832
0.000000 -1.493151 -0.105744
0.000000 4.788377 -1.771388
0.000000 -1.041188 -3.294016
0.000000 -0.885391 3.901825
0.000000 -1.113201 3.484894
0.000000 0.507891 3.362606
0.000000 1.559407 1.699059
0.000000 3.136717 -3.244571
0.000000 -2.908103 1.059164
0.000000 2.138754 0.160796
0.000000 -1.382187 -1.467991
0.000000 4.745999 -3.893273
0.000000 0.048344 0.644597
0.000000 4.760968 0.402467
0.000000 0.008267 -0.342376
0.000000 -0.966441 -1.201679
0.000000 -0.802230 -0.681449
0.000000 -2.922110 1.426750
0.000000 0.907063 0.687164
0.000000 1.235554 -0.521831
0.000000 -4.933117 -2.970764
0.000000 -4.738276 1.907400
0.000000 -1.923122 -2.782344
0.000000 2.977349 -1.438173
0.000000 -3.026260 0.870559
0.000000 1.538926 -2.548124
0.000000 2.956463 -0.390858
0.000000 0.687625 1.503656
0.000000 -0.596810 3.456356
0.000000 3.958972 0.088395
0.000000 -4.632763 1.149081
0.000000 -4.219072 -3.556552
0.000000 -0.102918 0.239865
0.000000 0.670857 -3.706081
0.000000 3.776652 0.056057
0.000000 2.887042 3.547726
0.000000 3.238705 -3.716467
3.943952 0.000000 -4.729907
0.492029 0.000000 1.345851
2.566893 0.000000 0.423009
-1.774630 0.000000 2.557779
-0.663000 0.000000 -3.517996
-2.503376 0.000000 -3.872625
2.683509 0.000000 -4.879136
0.494940 0.000000 1.357379
-3.526364 0.000000 3.386662
3.634560 0.000000 -3.565440
-3.184077 0.000000 2.711256
-1.075031 0.000000 -4.751565
-2.901523 0.000000 2.870378
1.148804 0.000000 3.391678
-1.984184 0.000000 3.279922
-2.093692 0.000000 -0.743055
-0.633817 0.000000 -4.030652
1.859477 0.000000 -3.607019
3.115412 0.000000 1.843806
-2.321380 0.000000 -1.626935
1.568006 0.000000 0.002180
-2.575493 0.000000 -0.582700
-1.722484 0.000000 1.123253
1.728435 0.000000 -4.555578
3.989602 0.000000 -4.039058
-1.879901 0.000000 0.761495
-3.354226 0.000000 2.657017
-3.417341 0.000000 -3.115459
2.019389 0.000000 0.422025
3.749528 0.000000 3.905005
3.826672 0.000000 -4.394671
-3.105432 0.000000 -0.541532
1.677884 0.000000 0.877643
1.054336 0.000000 3.536031
-2.635676 0.000000 0.933235
-2.530363 0.000000 2.575368
3.344355 0.000000 -4.763922
1.066632 0.000000 3.076933
-1.499968 0.000000 4.273881
0.218207 0.000000 -4.361960
3.961254 0.000000 0.790018
1.712426 0.000000 3.261034
-1.811209 0.000000 -0.840571
-0.204600 0.000000 1.587081
-3.279966 0.000000 -4.470494
1.717626 0.000000 2.534214
2.280612 0.000000 2.431098
-0.494717 0.000000 3.025252
1.290365 0.000000 4.271467
3.966153 0.000000 -0.580095
-3.809015 0.000000 1.779749
1.312361 0.000000 0.438471
1.636714 0.000000 2.920984
-0.599339 0.000000 3.190225
-3.513710 0.000000 -2.532180
-3.409002 0.000000 4.716489
1.401426 0.000000 3.610885
0.146113 0.000000 -1.423268
-1.982526 0.000000 -0.340414
2.634644 0.000000 -0.548126
0.985361 0.000000 -2.656831
-0.996755 0.000000 -2.800375
-1.878595 0.000000 4.882882
3.618467 0.000000 4.220306
-2.842908 0.000000 2.995014
2.432979 0.000000 4.310298
2.000731 0.000000 -2.957661
-0.148767 0.000000 -0.164528
1.509189 0.000000 2.228301
3.106003 0.000000 -3.433796
-3.437366 0.000000 -1.960430
3.102779 0.000000 1.110655
-2.713194 0.000000 -0.688199
0.020855 0.000000 4.722628
-3.215436 0.000000 -0.378609
1.162491 0.000000 3.571767
-0.114923 0.000000 -3.526331
-2.012606 0.000000 4.855985
2.494904 0.000000 2.091232
2.261208 0.000000 1.027867
0.832148 0.000000 1.490719
0.279455 0.000000 4.331332
-2.328445 0.000000 1.279097
-1.225006 0.000000 4.286396
3.299533 0.000000 3.728985
1.017923 0.000000 -3.716684
-2.419374 0.000000 0.484485
-3.887889 0.000000 3.748637
-0.013539 0.000000 0.570406
3.400422 0.000000 4.724613
1.055972 0.000000 -1.297562
2.106504 0.000000 -3.824304
-1.160532 0.000000 -2.440975
2.686639 0.000000 -1.346981
-1.980943 0.000000 1.480718
3.149963 0.000000 -2.428485
-2.721216 0.000000 2.276890
-3.942189 0.000000 1.066054
-2.237437 0.000000 -3.470796
2.184361 0.000000 -3.575131
