x,y,z
49.633949,6.039134,45.300491
14.343783,47.898391,89.249124
28.538434,-41.055545,1.474080
24.237683,-43.732536,64.855191
39.365073,30.828413,29.737155
-6.918933,-49.518970,74.156553
24.821561,43.403803,31.959795
-47.228748,-16.414792,84.896038
-41.219657,28.300880,97.615961
-40.736433,-28.992120,33.460224
5.819213,-49.660213,55.235850
13.382261,-48.175877,79.787718
-41.609318,-27.724802,38.964285
-49.069777,9.599841,97.294623
1.451781,-49.978919,88.418668
34.243935,-36.432855,60.257765
31.781060,-38.600055,39.477459
17.265153,-46.924562,51.293343
45.083770,-21.620676,20.213153
16.855181,-47.073378,92.571561
-22.117926,-44.841915,29.347841
48.769171,11.025787,26.132660
46.342738,18.771004,52.034144
-49.859023,3.752047,89.091436
42.353594,26.573917,74.194484
-49.385354,7.815804,85.807633
44.063146,23.631317,14.121543
39.675673,-30.427636,45.396767
48.701974,-11.318908,90.976279
-17.550739,-46.818496,56.548763
-46.049627,-19.479009,0.217292
28.776164,40.889270,10.389453
-31.247372,39.033342,91.813815
40.262732,29.646457,36.418532
33.150938,37.430139,99.925008
-25.944865,-42.741830,11.286266
49.947041,-2.300677,49.204852
45.022519,21.747938,34.156203
43.350137,-24.915169,46.379837
42.052140,-27.048429,65.980613
13.173763,48.233308,83.510201
-42.209793,26.801741,48.157681
-32.526509,37.974020,56.585856
-37.444254,-33.134994,45.734598
17.544862,-46.820698,63.315656
-49.525215,6.874089,38.336394
22.885060,44.455304,54.326795
-16.680315,47.135624,88.534404
46.670337,17.941004,89.161318
2.301969,-49.946981,21.836385
40.184148,-29.752886,86.221475
7.020251,-49.504708,84.829826
-21.738807,-45.026928,88.819137
-49.424122,-7.566782,33.698431
-24.549773,43.558107,92.100733
9.879231,49.014292,63.075705
-42.250602,-26.737364,50.242813
-4.120293,49.829943,7.836964
-18.124474,-46.599393,40.734550
40.769749,28.945252,5.455736
-46.205604,-19.106076,23.303915
-33.623620,-37.006110,23.485861
-48.666300,-11.471323,22.698703
47.664550,15.102672,18.231785
-20.073041,45.793810,70.112776
46.037471,19.507723,74.854204
46.053803,19.469136,31.049953
1.202740,-49.985532,98.854306
-13.149561,-48.239911,33.047990
46.365537,-18.714619,39.581549
48.154231,13.459942,6.682585
-40.980325,28.646342,71.317882
49.760630,-4.886682,32.573233
-1.842743,49.966031,3.103922
0.629003,49.996043,32.007697
49.550267,6.691119,62.796321
17.712242,46.757635,78.887603
-49.560216,-6.617022,75.046656
48.854957,10.639228,31.605260
-7.456641,-49.440859,13.212663
-46.114853,-19.324088,86.043431
-18.974448,46.259813,90.127084
-41.777375,27.470911,9.945783
-47.388770,-15.946927,75.263165
-22.134897,44.833540,6.192246
28.985139,40.741401,21.736250
36.863614,-33.779786,25.296140
-49.638597,6.000806,77.820719
49.494340,7.092975,36.968850
49.431239,7.520149,76.707066
-22.521298,-44.640689,46.173869
-44.390834,23.009864,17.122265
-33.191191,-37.394450,73.963605
20.016444,-45.818577,57.488699
47.060042,-16.892380,77.191077
40.706868,-29.033616,39.051241
21.328957,-45.222512,37.744745
-43.760256,24.187600,40.159470
-36.580061,34.086642,15.752648
9.341025,-49.119703,19.588807
-32.073668,38.357266,69.074108
-18.071598,46.619924,83.441434
10.713789,-48.838660,26.844944
21.329686,-45.222168,80.177388
-38.467265,-31.941658,68.159135
11.223408,48.724071,95.102469
-36.386824,-34.292842,81.466515
26.019410,42.696490,64.154688
48.976694,-10.063969,16.787383
-13.822476,-48.051422,91.559310
-48.085330,13.704052,48.847353
-13.637815,48.104158,41.750278
49.856607,-3.784011,42.836524
36.137847,-34.555115,2.069134
46.476767,18.436652,27.037770
-46.428908,18.556846,72.241155
-46.701435,17.859897,14.862227
36.539566,-34.130047,44.415794
29.404544,40.439743,52.852036
12.006287,48.537090,4.387940
46.795603,17.611688,52.934998
-20.054092,45.802111,22.555391
-39.969567,30.040534,0.682285
24.368527,-43.659763,61.079212
31.812566,-38.574093,28.528220
48.256796,13.087460,74.841520
-48.384449,-12.607343,81.994932
48.575675,11.849211,28.557211
48.308834,12.894050,39.517481
-39.537217,30.607327,96.663524
37.247895,-33.355574,6.429640
45.461743,-20.814176,3.950488
24.748359,43.445584,87.818970
-5.579653,-49.687699,3.844615
9.060052,-49.172304,84.881151
-49.010514,9.897953,8.910869
49.816460,-4.280228,69.001001
-43.799395,24.116654,30.762190
43.342031,24.929267,67.355218
-7.102085,49.493034,11.258876
27.319195,41.876743,57.132721
23.991716,-43.867956,77.010392
1.781745,49.968244,29.606228
-48.311269,-12.884927,97.798549
30.953808,39.266548,22.261122
47.795869,14.681787,8.997688
-41.148396,28.404392,91.190668
-44.622409,22.557497,87.514507
-48.483863,-12.219455,0.162059
49.004613,-9.927129,72.145900
31.602497,38.746383,17.519463
10.685971,48.844754,96.925162
-36.159989,-34.531945,54.899479
-39.387816,30.799350,24.410978
-25.185695,-43.193527,0.200453
1.783553,-49.968179,23.704777
-39.251065,30.973438,66.356861
-49.329695,8.159730,97.617649
4.677722,49.780708,6.148797
-15.319020,47.595458,79.456286
49.463343,7.306004,22.582022
34.028242,-36.634392,20.320877
28.741159,40.913882,40.034045
14.770671,-47.768476,54.414196
-28.492382,-41.087518,25.565600
-45.611792,20.483271,53.614250
-38.382005,-32.044058,87.272285
-46.183534,-19.159362,28.187289
28.625976,40.994554,90.585391
22.388750,44.707314,61.060438
26.770638,42.229527,96.408692
-33.889434,36.762838,72.571302
47.347238,16.069817,55.328984
-42.457753,26.407181,59.635670
34.306755,-36.373707,32.308923
-23.552406,-44.105376,29.208378
42.018502,27.100654,47.422060
49.469114,7.266828,20.457025
0.161598,-49.999739,43.092532
47.904789,14.322403,68.837617
4.855539,49.763679,46.632914
19.353049,-46.102706,51.166959
49.999468,-0.230721,64.637039
-34.616749,-36.078813,69.159586
48.813001,-10.830093,40.188079
-40.417568,29.435017,30.023935
29.980322,40.014751,39.315155
40.171258,-29.770288,86.933176
-48.649701,11.541515,25.512586
-32.284917,-38.179630,43.830088
46.226041,19.056577,24.991939
21.861019,-44.967720,70.001735
-36.816951,33.830638,97.813018
48.033722,-13.883858,87.486376
-18.046173,-46.629772,74.931521
-45.886117,19.861124,36.119609
-36.552856,34.115814,96.956017
-49.584369,6.433531,35.099994
-47.681761,15.048246,52.389598
12.956726,48.292062,16.202598
-20.981686,-45.384677,5.672843
6.448391,-49.582439,73.532237
-15.049793,47.681272,67.965077
-15.773598,-47.446745,33.659907
-26.632177,42.316984,58.298281
-43.789908,24.133877,83.145088
-17.346049,46.894718,92.502238
48.955967,-10.164314,51.907451
31.632492,38.721899,46.570389
25.335771,43.105669,43.556776
13.440454,48.159674,92.564834
30.444487,39.662743,92.190145
1.134144,-49.987136,2.617002
4.975618,-49.751816,10.175838
48.981088,-10.042563,81.148259
49.273009,-8.495329,12.712319
46.873333,17.403753,16.201891
32.400533,-38.081563,41.512866
48.827635,10.763923,19.772391
10.261241,-48.935743,55.040889
-1.335176,-49.982170,11.060635
-49.652923,5.881089,59.364645
0.014020,-49.999998,42.545929
14.911890,-47.724580,19.862642
49.170124,-9.071873,1.762196
-26.665675,42.295884,29.965405
-39.885106,-30.152584,3.336888
-19.147583,-46.188419,6.657257
20.979897,45.385503,47.564648
-49.194070,8.941111,31.056727
28.960572,40.758867,7.699475
-39.729232,-30.357669,36.037563
-40.228391,-29.693039,1.133973
-5.595299,49.685940,61.438056
-42.390421,26.515132,81.852853
45.122730,21.539248,12.418583
-4.806672,49.768423,94.293812
-1.512316,49.977124,20.583767
2.959547,-49.912334,62.484291
-24.772034,43.432089,80.616692
24.154707,43.778421,29.271515
49.974384,-1.600303,99.917032
49.663137,-5.794207,69.450841
-43.578224,24.514045,66.942217
-15.860227,47.417858,62.745893
24.929515,43.341888,32.009499
47.865014,14.454773,23.675991
-48.819516,10.800687,95.679118
-32.210211,38.242676,29.738119
46.623239,18.063044,65.556329
-40.537955,-29.268997,40.681402
2.048740,-49.958009,32.429749
49.796169,-4.510163,28.976135
45.856960,-19.928351,68.675054
-19.680009,-45.964086,28.335864
35.433736,-35.276768,33.209882
-3.263117,-49.893407,61.807127
-16.522105,47.191313,81.030689
47.882497,-14.396751,54.480977
-18.505238,46.449501,5.705108
6.478864,-49.578466,89.489218
43.739660,24.224825,9.785266
-26.620203,-42.324518,27.510339
10.101066,48.969056,27.340428
-30.438863,39.667060,21.475039
36.820022,33.827296,2.459642
-45.774635,20.116729,4.435556
-48.336499,12.789952,98.530731
-26.492496,42.404571,99.682851
3.831894,49.852950,91.682746
43.474494,-24.697537,94.153891
-10.069644,-48.975527,58.770799
46.471081,-18.450979,34.159856
-44.266454,23.248249,57.067612
-10.642483,-48.854248,71.282731
-6.219069,49.611724,76.501246
-13.144098,-48.241400,97.325440
13.415618,-48.166598,84.365009
33.653372,36.979055,66.820028
-2.972121,-49.911587,93.445018
16.522949,-47.191018,82.370059
48.189683,13.332459,94.011628
49.869941,3.604024,86.488216
30.629983,-39.519668,5.590799
-48.201826,-13.288489,28.645825
33.182009,37.402597,36.870345
-35.382143,-35.328514,95.828551
-40.244945,29.670598,42.135245
48.467755,-12.283188,1.912284
45.304058,-21.155197,82.925392
-40.900305,28.760477,62.736475
33.805054,36.840444,94.978159
42.686544,26.035725,33.999223
-11.520862,48.654596,59.271659
-19.403607,-46.081450,21.802315
-46.972163,17.135224,96.191669
-16.701627,47.128077,34.737893
-49.953453,-2.156980,2.436007
-32.223798,38.231229,70.034406
29.278225,40.531291,31.428010
-32.169654,-38.276800,92.166253
-21.867498,44.964570,11.379048
31.348785,38.951941,32.855112
21.223656,-45.272027,35.974231
-38.530033,-31.865915,42.154404
36.170108,-34.521346,74.409370
33.047771,-37.521258,1.547565
-36.027270,-34.670388,34.635580
-30.476279,39.638320,35.028960
-43.033095,-25.458844,22.633378
4.687800,49.779760,57.959828
-43.084179,-25.372299,22.930256
36.809865,33.838348,3.118896
12.127121,-48.507040,94.299155
36.717782,33.938245,26.245067
32.818904,37.721606,62.083213
44.532368,-22.734735,58.041719
6.497306,-49.576053,70.577329
47.079039,16.839361,97.642899
-49.996438,-0.596807,56.598528
-42.208964,-26.803047,29.142818
-40.826393,28.865301,30.758651
-29.128226,40.639223,6.988104
4.500439,49.797049,76.027379
-29.998722,40.000958,30.049888
-44.647155,22.508478,76.921027
-0.378657,49.998566,69.578627
-42.292766,-26.670619,36.030160
-28.742137,-40.913195,17.638654
-11.826957,-48.581098,30.361872
-23.432512,-44.169191,68.414404
4.338463,49.811422,12.143601
35.265739,-35.444713,97.793360
-20.855293,-45.442895,47.018271
36.183760,34.507036,43.454229
-25.657846,-42.914740,84.865832
-32.440245,38.047740,95.582187
-45.735140,-20.206359,91.580477
-44.172596,-23.426092,20.178359
-21.172424,-45.296009,27.560165
-34.791629,35.910201,47.556621
22.925241,44.434596,57.748586
-27.124916,-42.002845,82.198673
-16.734426,47.116441,88.325032
-11.346156,48.695634,25.580525
36.320649,-34.362922,98.963408
-23.761445,43.993110,48.868927
0.566046,-49.996796,57.096383
24.160682,-43.775124,80.191121
-25.427259,-43.051765,25.891252
-13.510792,-48.139988,22.265323
28.043789,41.394998,42.417803
-3.228844,49.895637,90.228685
-49.994781,-0.722435,35.013330
-49.917226,-2.875852,86.830063
14.972162,47.705706,56.642630
34.434724,36.252583,71.412238
-32.865493,37.681021,40.405719
37.121109,-33.496616,42.464963
27.045556,-42.053988,68.121417
1.494381,49.977663,41.565324
31.735363,38.637633,28.335958
42.670900,-26.061357,29.255659
49.958486,2.037068,54.778598
49.939754,-2.453763,17.398655
29.045992,40.698039,87.945412
-4.527977,49.794552,26.301418
-49.762169,-4.870990,51.457759
45.217158,21.340306,56.763934
47.271046,-16.292582,1.559898
-49.520462,-6.908243,82.873599
32.266414,-38.195268,30.347159
49.220674,8.793479,30.986459
-48.096122,-13.666127,1.194739
24.331599,43.680353,71.437155
-45.292969,-21.178927,6.925878
-2.362839,49.944139,22.107817
-25.323657,43.112787,72.373844
46.203007,-19.112356,43.259517
49.991140,-0.941245,48.875323
43.004786,25.506634,92.000769
46.599848,-18.123305,33.961646
-32.837869,-37.705097,62.852103
-48.492438,12.185379,60.099927
-49.034815,9.776858,51.061763
-36.339107,-34.343402,82.806671
26.944907,-42.118547,33.797681
-1.061351,49.988734,3.244493
4.362863,49.809291,98.351556
39.183074,31.059406,81.732220
34.806224,35.896055,40.076578
-37.043823,-33.582067,82.287167
-23.603883,44.077848,47.528293
44.716034,-22.371328,32.334240
-24.463979,43.606350,78.304675
47.049535,-16.921622,30.574288
-11.714636,-48.608305,98.681364
29.622759,40.280171,69.662882
37.622970,32.931931,98.057298
24.443696,-43.617723,9.834583
40.183160,29.754221,78.222652
-48.607390,11.718430,56.459889
-49.614099,-6.200092,46.703898
-49.748997,-5.003731,52.507733
41.047653,-28.549784,7.106111
38.215267,-32.242726,26.724521
-45.329234,21.101197,18.896526
29.402399,-40.441302,77.500796
43.605448,24.465587,28.232823
40.300490,29.595109,93.733220
-18.170832,46.581336,47.089343
-40.118097,29.841888,10.503529
10.384374,48.909762,49.922195
48.648428,-11.546880,39.498021
-25.573445,42.965090,48.828256
-25.766804,42.849409,42.969885
-4.551280,-49.792428,62.896143
-29.759899,40.178955,82.156632
26.720435,42.261310,48.262714
-34.019436,-36.642570,88.158468
-6.479736,-49.578352,2.080920
32.324443,38.146171,26.390482
30.730044,-39.441912,37.222660
-43.659719,24.368606,58.927691
5.429310,-49.704352,24.933158
-43.994783,-23.758348,3.226865
48.826510,10.769028,17.134352
-48.961057,-10.139767,38.882407
-41.171540,28.370835,36.305890
8.051133,49.347536,15.114999
-46.313988,18.841829,97.171654
7.484881,49.436591,28.026469
2.498518,-49.937535,95.058367
33.308696,-37.289821,84.784031
-49.826547,-4.161153,28.275417
-19.277679,46.134273,65.842194
39.077659,-31.191931,43.117167
28.750520,-40.907305,72.634239
-34.899191,-35.805676,86.857307
-21.519075,45.132354,62.922740
11.037561,-48.766507,81.294130
49.333768,-8.135065,19.167142
-43.194867,25.183396,78.068878
-28.861339,40.829194,42.964147
-15.762821,-47.450326,38.760773
-5.671031,49.677353,72.055629
-45.910216,19.805354,57.928816
-24.188342,-43.759846,92.038789
43.987036,23.772688,94.305335
-3.351216,49.887567,26.183849
-46.148394,-19.243850,20.329061
20.049711,-45.804029,45.249738
20.178807,-45.747303,68.161911
38.267502,32.180713,55.559000
-49.935029,-2.548121,39.734640
-37.667837,32.880603,27.529655
25.200282,43.185018,66.008305
48.932681,10.275831,79.938642
26.235437,42.564091,87.204973
-49.958109,2.046306,53.437338
-24.971622,-43.317642,9.161347
49.822117,-4.213869,88.649826
43.837809,24.046756,93.688220
21.794992,-44.999759,27.202267
42.375580,26.538844,95.438128
21.254255,-45.257669,35.866752
38.002242,-32.493532,6.270620
46.131860,19.283452,2.326558
-46.529379,18.303466,99.638272
49.993754,0.790303,89.532293
23.523055,44.121037,84.884547
49.255404,8.596813,51.490167
-2.461104,-49.939393,1.302770
-23.322773,-44.227234,95.645314
-47.744030,-14.849497,26.861293
39.570950,-30.563703,81.066203
-49.208470,8.861517,19.598953
-40.956111,-28.680951,69.195369
-32.781606,37.754024,86.574110
-49.300301,-8.335484,5.014896
-17.455728,-46.854003,33.015483
26.929850,-42.128176,23.042458
27.730822,-41.605307,5.887001
-47.642956,15.170653,52.996154
-48.731001,11.193282,60.206064
41.986057,-27.150894,69.691609
49.470302,7.258734,30.490929
-49.077199,9.561826,30.219836
-40.179349,-29.759366,8.536999
48.857887,10.625765,48.601095
-5.270169,49.721477,4.155801
-24.607453,-43.525547,95.884374
16.625005,-47.155161,79.473340
-24.567193,43.548284,21.284615
-49.979921,-1.416864,5.791905
32.971407,-37.588380,32.800808
34.569242,36.124334,85.755534
18.294727,46.532816,52.761204
-24.312806,-43.690817,42.306012
6.496773,49.576123,72.783852
44.319764,23.146459,84.317527
49.976400,1.536056,21.054428
-48.445096,-12.372255,13.093739
0.180432,49.999674,8.597970
49.958202,-2.044026,75.398334
42.161327,-26.877919,8.497544
-49.563182,6.594769,12.536065
49.959669,-2.007848,31.643581
49.266533,8.532805,22.471716
21.116292,45.322204,82.211040
-27.475849,41.774127,1.141614
1.873840,-49.964875,24.011723
-21.082792,-45.337798,24.667800
-46.590439,18.147478,22.520107
-5.338713,-49.714164,17.382225
1.933862,-49.962588,44.088790
44.747840,22.307639,15.703425
-24.138253,-43.787495,24.334389
-46.486042,-18.413253,35.301758
26.249243,42.555578,7.125314
-20.730645,45.499894,74.150439
26.020930,42.695564,86.591886
45.337790,-21.082808,83.893550
42.357311,26.567992,6.193523
-48.002466,-13.991543,70.772327
16.558197,47.178662,97.142596
-41.351667,28.107644,29.054438
-4.103851,-49.831299,79.033717
-11.770206,-48.594879,22.014340
26.027760,42.691401,93.703093
-46.643820,-18.009831,83.959700
-22.708710,44.545645,24.072886
12.310536,48.460816,54.595432
48.063506,13.780398,66.954077
-49.910654,-2.987738,90.189329
-43.657944,-24.371786,1.534962
-18.011399,46.643215,74.761866
4.675877,49.780882,88.350961
-41.721645,-27.555478,16.006710
39.726967,-30.360634,43.120989
-12.777589,48.339769,51.238150
-0.366720,-49.998655,17.243431
47.646499,15.159523,26.711250
-48.620256,-11.664935,30.346654
-30.860796,39.339691,15.577831
13.569004,-48.123613,91.523159
-31.189379,-39.079696,1.406536
-36.049971,34.646783,74.122137
37.212425,-33.395141,85.414390
-7.816016,-49.385321,52.862101
47.065448,-16.877311,20.253142
49.301510,-8.328332,90.032241
-30.491757,39.626415,67.003972
9.266777,49.133765,51.826295
49.318328,-8.228157,68.409319
29.819738,40.134564,93.044559
29.617558,40.283995,11.253465
49.212942,8.836649,22.582434
-32.246578,38.212016,48.470134
4.291809,49.815463,2.867574
24.590990,-43.534850,89.299056
22.365669,44.718865,58.629019
-18.091160,46.612336,27.288128
-45.516445,-20.694279,82.977832
20.412826,45.643362,42.075441
-47.700535,14.988626,30.202054
43.972994,23.798651,99.334439
4.652643,49.783059,57.410534
-20.258162,-45.712218,77.891844
-30.048435,-39.963628,99.690073
29.948362,-40.038677,90.327275
48.738902,11.158827,29.958888
46.601121,18.120031,58.488530
49.815297,4.293739,96.171206
38.825323,31.505465,93.659956
-18.457788,-46.468377,71.507475
33.525976,37.094594,49.113281
49.963482,-1.910629,53.499239
-35.881141,34.821599,38.191099
-1.194724,-49.985724,66.683322
41.118750,28.447292,83.530678
39.920701,30.105442,58.361004
42.697726,26.017383,36.254998
29.395127,40.446588,40.855473
46.284371,-18.914466,28.499404
38.359720,-32.070732,9.050869
-49.579182,6.473388,19.299082
-11.875365,48.569288,66.849283
49.979562,1.429478,9.447782
30.842267,-39.354219,63.638304
-49.999203,0.282388,94.049068
-47.085603,-16.820998,58.667157
-16.073801,47.345886,39.083844
45.169584,21.440819,4.367457
-33.370434,37.234583,44.759990
-30.208012,-39.843142,89.022807
-49.390864,7.780907,4.749767
15.156451,47.647476,81.842501
-23.272952,-44.253471,3.417516
-49.006962,9.915525,90.367587
25.552579,-42.977502,5.689091
-28.699077,-40.943412,61.674642
18.942899,-46.272741,5.055630
47.515150,-15.566326,65.594485
40.543907,-29.260752,24.774251
42.396604,-26.505245,39.464638
26.697554,-42.275768,96.367807
14.891430,47.730968,52.072852
0.454083,-49.997938,21.526730
5.968903,-49.642444,17.589482
48.420531,-12.468045,67.510684
41.528800,27.845264,65.738806
-35.562966,35.146486,66.956951
32.825217,-37.716112,3.249862
45.921739,19.778622,35.627408
-47.076481,-16.846512,94.765481
49.863489,-3.692213,39.297293
23.347932,-44.213958,59.903910
-47.180192,-16.553836,92.905583
0.805016,49.993519,68.197368
22.217969,-44.792431,62.291439
7.849867,49.379951,26.907243
-27.380626,41.836602,2.361176
24.217113,43.743930,38.905680
24.730317,43.455856,18.149809
-39.028511,-31.253405,7.115504
-31.808900,-38.577116,63.341945
-40.003412,-29.995450,57.525729
-17.268690,46.923260,27.955157
-49.210189,8.851964,63.184728
-8.941080,-49.194076,47.203570
15.030709,47.687292,58.851733
-42.430428,-26.451065,95.363393
-33.458186,-37.155750,96.598299
-35.938689,34.762201,74.706413
31.266562,-39.017972,12.716731
9.070966,-49.170292,14.205043
-36.176293,-34.514864,30.712092
-17.047256,-47.004160,36.637767
-49.818379,4.257832,7.881063
-11.224756,48.723761,97.033924
30.191748,39.855468,73.370407
-49.903411,3.106374,63.335688
21.967041,44.916023,78.895656
-40.795478,28.908977,49.424448
11.911639,-48.560404,62.634338
48.679405,11.415583,8.620499
47.987467,-14.042899,71.144371
40.266990,29.640673,13.969256
29.885119,-40.085903,79.029021
-48.392780,12.575327,14.754712
-31.293999,-38.995969,68.269118
7.615877,-49.416580,1.659219
-42.722966,-25.975916,82.817233
42.034083,-27.076481,98.663549
-6.785809,49.537388,95.836411
-14.526635,-47.843253,26.589595
23.235009,44.273405,67.850557
-45.430594,20.882077,3.231588
41.919829,27.253035,71.692464
7.214521,-49.476769,3.617186
-46.646054,18.004045,41.788492
-49.316929,8.236535,49.346796
44.596754,22.608173,75.480466
-13.070911,-48.261281,91.020457
-7.678866,-49.406832,81.644082
15.039347,-47.684568,36.912708
33.992506,36.667555,97.449911
45.721931,-20.236229,88.491185
10.393605,48.907801,61.390001
-44.782185,-22.238612,90.564166
-37.459062,-33.118252,75.505082
34.878240,-35.826085,17.045062
18.834082,-46.317139,41.727833
22.884848,44.455413,71.826174
11.198650,-48.729767,57.939319
-43.738478,24.226958,12.047133
-22.024433,-44.887909,21.824446
39.696724,-30.400167,35.293362
-14.039018,47.988603,53.205913
-0.335423,-49.998875,88.778931
23.771251,43.987812,40.808666
49.017132,9.865128,11.339247
-35.810636,-34.894102,37.831557
38.882814,31.434484,48.909840
31.002364,-39.228223,6.619155
33.428730,-37.182254,59.282995
-24.939647,-43.336059,39.574353
-37.144063,-33.471161,33.471578
-49.829977,4.119875,59.746837
-33.984940,-36.674567,58.962454
1.917072,-49.963235,70.877990
0.436869,-49.998091,87.642296
49.990561,0.971478,57.826094
15.571161,47.513566,40.205050
4.625276,-49.785609,5.356648
19.849295,45.891235,14.595121
-35.803158,34.901775,98.845353
-17.696242,46.763693,71.505803
13.399986,48.170949,51.108263
-13.135273,48.243804,4.368263
-46.361784,18.723915,8.505149
-49.542079,6.751477,3.854196
-37.585697,-32.974466,15.432367
0.289803,-49.999160,58.196784
49.984166,-1.258245,91.324219
-49.898040,-3.191486,91.549986
-42.833956,-25.792483,31.797928
46.688652,-17.893289,59.668325
16.795203,-47.094810,51.283080
23.056284,-44.366742,40.336660
-17.957669,46.663928,94.907505
1.999718,49.959995,78.222188
34.949521,-35.756552,51.823088
47.892066,14.364890,51.588410
-49.999779,0.148657,3.885148
-42.235384,26.761397,20.640222
27.748631,-41.593431,95.505568
-23.750967,-43.998768,12.303656
47.466302,15.714649,21.727164
44.479904,-22.837210,79.588029
-49.985588,1.200432,36.427502
49.997351,-0.514656,65.351906
-26.420141,-42.449689,96.681455
31.164786,-39.099311,91.069475
49.933855,-2.571010,86.820789
48.108938,13.620942,70.078621
-43.823375,-24.073052,93.252138
47.523756,15.540033,38.316998
-38.584040,31.800501,50.363940
-35.773240,34.932439,62.114316
-45.780174,-20.104120,23.688146
-5.872814,49.653903,23.168542
49.980958,-1.379807,24.017775
49.999720,-0.167214,47.762282
-16.961365,47.035222,0.894682
-46.952914,17.187900,25.476664
37.130226,33.486509,58.401614
-23.271346,-44.254315,32.699193
-37.698153,-32.845841,81.693997
-29.776706,-40.166501,54.520227
36.441764,34.234454,65.206759
-8.450310,49.280749,57.700752
31.978452,38.436683,34.281878
-40.088325,-29.881871,0.540081
-1.616808,49.973852,44.880794
9.055143,-49.173208,54.369718
19.602640,-45.997136,60.882568
9.454596,49.097969,92.222720
9.911358,-49.007805,46.593530
-46.299314,18.877859,58.853985
4.124371,-49.829605,17.251500
49.723013,-5.255660,90.846639
-18.614267,46.405916,88.605960
48.511206,12.110444,91.888796
-48.824287,-10.779099,50.477958
49.802703,-4.437431,69.819883
-46.804423,17.588235,38.487323
47.252871,-16.345219,83.487157
-7.534240,49.429093,39.023771
-49.471528,7.250375,3.815052
-3.706191,49.862452,99.566428
-5.292992,-49.719053,89.268314
19.724552,45.944990,2.431190
-45.778701,-20.107474,4.047740
-43.076273,25.385719,5.114537
-45.508048,20.712739,93.534815
35.409044,-35.301553,32.710806
-36.561361,-34.106698,91.507289
16.981284,47.028034,30.521491
-15.103236,47.664371,60.095557
40.526818,29.284416,14.899589
47.268358,-16.300379,52.300235
45.268261,21.231687,66.092426
49.855134,-3.803365,6.051224
-16.711345,-47.124632,94.810125
-47.065825,16.876260,76.514454
45.884661,19.864487,19.511055
-37.953317,-32.550664,31.272080
-5.138122,-49.735296,59.054696
-13.164161,48.235929,5.928631
32.152194,-38.291466,75.469624
-6.811333,-49.533885,79.345297
-38.290843,-32.152937,90.042458
9.693654,49.051331,54.472686
0.348947,49.998782,10.118138
5.888791,49.652010,88.131876
26.804372,42.208123,92.438125
-23.557511,44.102649,90.985837
18.421179,46.482902,8.346483
49.638612,6.000681,20.237786
-31.299589,-38.991483,98.057917
-41.165415,28.379722,97.160243
22.377437,44.712977,80.933112
21.124877,-45.318203,62.958682
0.116604,49.999864,79.096110
35.946678,-34.753940,90.750504
-49.748374,-5.009921,74.527892
-4.053944,-49.835384,77.938832
7.710121,-49.401964,72.401355
-45.390935,20.968142,39.315485
41.445343,-27.969332,96.250500
-17.003412,47.020038,72.722999
5.604606,-49.684891,9.575187
-26.791316,42.216411,0.209556
-40.460977,-29.375318,89.535803
9.183125,49.149468,34.213984
48.443917,12.376871,53.934647
-10.985884,48.778175,20.083354
-18.472666,-46.462464,31.474167
-45.921304,19.779633,4.671713
-46.609636,-18.098116,36.555859
-41.682271,27.615001,74.240387
-49.863397,3.693462,32.891793
41.672213,27.630177,30.399170
-21.617192,-45.085441,85.043608
-9.251630,49.136619,20.126080
-4.764462,-49.772481,17.792923
-33.504855,37.113673,7.317224
45.603318,20.502131,72.481685
23.959582,43.885515,99.956380
-22.903206,44.445958,44.907689
-48.818741,10.804192,47.915604
49.430378,7.525803,51.294358
-32.458633,-38.032054,7.552322
-49.992535,0.863983,74.532277
-18.827644,-46.319756,26.610534
-42.976628,25.554049,33.030248
44.769185,-22.264772,63.229360
7.074620,-49.496967,12.880710
13.145906,-48.240908,97.879953
-30.660347,39.496115,79.042753
38.629023,31.745843,78.378141
14.900702,47.728074,63.444571
-35.181250,-35.528575,48.444207
32.821132,37.719667,74.032200
-21.121604,-45.319729,34.271252
-43.781596,24.148952,73.759531
49.985436,-1.206709,1.729900
33.940649,36.715560,29.478969
4.227178,-49.820989,79.793176
49.999874,-0.112419,38.273724
-7.632603,-49.414000,26.596981
27.746000,41.595186,12.722349
-29.474735,-40.388613,42.518355
36.758892,-33.893714,82.850636
-49.379786,7.850906,41.604992
9.791550,-49.031883,38.241337
39.262145,30.959392,61.311096
3.371891,49.886174,70.038217
49.986800,-1.148819,17.743860
48.961575,10.137269,62.690977
-44.696772,22.409788,20.063372
18.753844,46.349685,20.319128
-35.200894,-35.509112,19.157204
-34.446353,36.241533,75.870657
-33.185529,37.399474,20.466403
-29.279711,-40.530217,0.147269
34.243238,36.433510,94.892816
42.252154,26.734911,12.222250
46.730413,-17.783940,27.622956
-25.978919,42.721140,31.248256
-27.947941,41.459771,75.168365
-42.893668,25.693058,80.421224
49.011444,-9.893349,12.035779
36.983828,-33.648127,31.740468
37.566354,-32.996500,27.722438
42.690499,-26.029240,38.645647
-46.780083,17.652870,45.271794
47.822796,-14.593840,58.046715
49.889395,-3.323892,27.037266
32.491661,38.003841,61.184137
-25.955925,-42.735114,34.229063
-36.269888,-34.416496,44.258734
12.102325,48.513233,73.330133
20.209864,45.733591,23.414617
37.243686,-33.360274,93.776004
-48.531941,-12.027083,41.108624
-46.369882,18.703850,40.626727
-28.746053,-40.910444,59.435154
-5.235757,-49.725113,46.694155
-48.126193,13.559849,15.050505
0.065196,49.999957,69.817332
38.020053,-32.472689,20.376087
49.998495,0.387914,83.160670
28.842536,40.842479,73.994024
30.943705,-39.274510,8.503895
40.737724,28.990307,43.531367
-44.048319,23.658944,0.553004
-29.265555,40.540440,61.216972
-49.564205,6.587079,16.982438
-15.685751,47.475859,59.557200
-41.842680,-27.371337,69.132638
-14.855686,47.742105,6.372405
-42.738115,25.950982,69.921916
13.473224,48.150516,67.613625
37.661521,32.887837,77.536374
-31.149711,39.111322,8.401076
-32.762942,37.770221,36.356854
38.802737,31.533277,12.557056
5.388699,49.708771,49.879985
36.955957,33.678735,68.619987
-49.820576,-4.232049,29.388003
-20.501777,-45.603477,44.310212
39.395442,30.789595,47.312278
36.631913,-34.030912,79.765006
1.249475,49.984386,93.809035
-8.269563,-49.311402,36.904656
-30.155078,39.883221,50.344420
34.899039,-35.805824,68.910102
48.750428,-11.108363,34.099190
20.811646,-45.462901,79.869743
-30.683629,39.478031,78.483079
30.816962,-39.374037,88.226115
49.934923,2.550182,67.446021
-26.822292,-42.196737,78.035299
-25.553964,-42.976679,42.230640
49.761820,-4.874551,80.169638
41.327223,28.143571,2.786250
46.962533,-17.161600,79.565393
49.174262,-9.049420,93.055204
27.494314,41.761977,2.624452
-43.353051,24.910098,21.163863
-23.549320,-44.107023,72.543683
34.319954,36.361254,0.043383
38.137795,32.334326,79.385355
-8.955342,-49.191481,2.667547
47.994976,14.017215,29.197095
-14.615924,47.816051,69.088640
-18.938977,-46.274347,23.384828
-46.433005,18.546591,68.304207
36.701350,-33.956014,88.802185
-46.921146,17.274434,80.761676
-35.516505,-35.193435,73.276983
-49.554693,6.658258,84.426603
-1.613784,49.973950,71.335296
-46.497030,18.385489,83.006028
19.566424,46.012553,53.691138
48.561752,11.906143,33.680470
-39.881183,-30.157772,76.329356
31.894161,38.506655,57.889851
49.995650,0.659503,86.944047
2.443706,-49.940247,36.987659
48.951084,-10.187807,3.141920
-16.963362,47.034502,58.766860
-36.887435,33.753772,72.584923
-49.959378,2.015093,27.829540
-0.426920,49.998177,38.381452
9.352018,49.117612,1.360377
-17.247524,46.931044,3.570395
30.843351,39.353370,26.566664
-23.327456,44.224765,33.952461
48.319059,12.855682,42.744244
41.126754,28.435719,10.907858
-34.649835,-36.047038,33.957804
47.509499,-15.583566,60.718826
-43.533782,-24.592881,57.352332
-41.929220,27.238584,47.300903
-4.009538,-49.838977,30.830721
-36.448188,-34.227615,34.196150
15.001839,-47.696382,37.887726
33.325973,-37.274382,26.272101
-11.580310,48.640481,41.453023
-11.756571,-48.598179,83.649418
27.023060,-42.068447,57.634891
6.750209,-49.542251,25.188579
23.888876,43.924044,28.073487
-36.358136,34.323257,15.902436
29.549730,40.333776,64.403665
-49.377444,7.865623,0.699236
36.817629,-33.829901,50.254778
-22.076409,-44.862369,28.549770
15.329416,-47.592111,16.305602
-32.919554,37.633801,14.084151
37.343196,33.248846,67.535418
47.332636,16.112777,23.841400
41.750903,27.511127,82.230234
-29.713979,40.212926,31.953550
30.122871,-39.907551,78.474126
-43.666970,-24.355609,84.871125
-1.324723,-49.982448,61.758479
-43.689878,-24.314494,66.710853
43.273179,-25.048592,18.050191
30.014976,-39.988764,46.349492
46.188762,-19.146756,67.821418
-23.370354,-44.202110,92.921854
-49.957448,2.062374,26.632685
-41.216600,28.305333,75.498376
38.551648,-31.839762,68.350943
-49.830760,-4.110401,35.874424
3.094077,-49.904175,32.512336
-45.226892,-21.319668,80.105083
1.910757,49.963477,61.653509
-48.983150,10.032499,89.962317
35.329379,35.381280,65.617688
-17.848293,46.705871,48.053155
41.070072,-28.517525,8.789017
-49.434895,7.496075,20.112350
49.811447,-4.338174,90.287420
42.283086,-26.685964,96.273134
46.244712,19.011223,23.303986
-8.287244,-49.308433,27.373250
47.711438,14.953885,48.471903
21.188882,-45.288313,4.845060
48.975879,10.067934,70.442517
-44.494735,-22.808300,14.185900
-38.486426,31.918568,74.200095
-38.711754,-31.644907,39.343300
48.546233,11.969264,47.288084
-10.690767,-48.843705,99.397674
-14.796268,-47.760553,94.062749
24.944429,43.333307,46.892134
21.815841,44.989655,25.520768
48.226322,-13.199313,36.515954
35.821620,34.882826,7.546178
-48.523711,-12.060245,98.619827
47.519882,-15.551874,46.073651
45.102166,21.582275,75.346179
-46.005225,19.583649,1.061637
-48.848050,-10.670894,41.088397
-47.056274,-16.902873,0.487110
42.066315,27.026379,41.862969
-21.619446,-45.084360,9.745153
7.337128,49.458736,52.457789
-40.549259,-29.253335,38.800994
21.241326,-45.263739,64.581304
-48.981193,-10.042047,94.342327
5.609588,49.684329,4.969826
8.719461,49.233840,28.688191
-36.455565,-34.219757,6.136393
-40.878216,-28.791864,32.348791
-40.968557,-28.663171,57.775292
-35.095094,35.613682,33.402728
21.965689,-44.916684,18.811384
-15.877739,47.411997,58.412006
-30.143534,-39.891946,83.769042
25.714999,-42.880518,85.441667
-27.126538,42.001797,64.882290
48.662858,-11.485916,16.946087
42.302342,-26.655428,14.471744
-23.212897,-44.285002,88.122629
48.072210,13.750005,28.617011
-23.212949,-44.284975,42.888576
-7.563572,-49.424613,76.236827
26.064539,-42.668956,49.469819
42.807938,-25.835643,70.974071
45.746339,-20.180992,28.226603
27.957734,-41.453168,18.541776
41.986666,-27.149951,45.303453
43.196265,25.180998,28.417874
-49.997837,0.465128,47.104717
-49.958535,-2.035863,69.720569
13.010758,48.277533,5.007149
-18.854031,46.309022,9.702232
-6.729396,49.545083,98.418952
49.983694,1.276828,23.852723
-31.087408,-39.160861,5.821399
44.590252,22.620996,58.850409
33.271641,-37.322887,27.332039
-45.168575,21.442944,36.715330
-36.978336,33.654163,92.775937
46.320955,-18.824694,16.994632
38.128327,32.345490,53.703590
-46.662584,-17.961159,58.881820
-44.253332,-23.273216,76.941459
-5.407989,49.706676,33.708768
-11.750935,-48.599542,83.836794
-2.976086,-49.911351,66.057741
1.686961,49.971534,16.159488
-49.285111,8.424832,69.263433
-48.078086,-13.729445,58.354160
-32.085649,38.347244,6.763049
46.832018,17.514624,8.296581
-49.450230,-7.394235,18.148569
43.218151,-25.143417,14.594855
-42.773115,25.893255,61.577041
49.764938,4.842622,50.551824
49.882486,3.426016,96.556001
-26.556692,-42.364397,33.132475
28.326750,41.201884,11.815573
-35.411674,35.298914,99.293661
-37.821247,-32.704025,37.195904
-32.677584,37.844095,80.633424
-49.820796,-4.229456,98.957087
-40.923512,28.727446,70.005807
49.931151,-2.622997,80.484856
25.643319,-42.923422,73.161743
-48.431608,12.424947,83.606447
-37.775962,32.756323,32.184524
-5.998437,-49.638883,97.943764
-27.491918,-41.763554,41.666823
-36.191602,-34.498811,5.642995
-44.235313,23.307446,5.721040
0.258190,-49.999333,56.629459
40.729494,29.001868,27.213589
30.914236,39.297710,63.187916
-46.591618,-18.144451,33.162362
-38.897755,31.415993,40.273402
11.298785,-48.706647,80.775086
29.128823,-40.638795,24.269241
46.744819,17.746039,49.674246
-39.811825,30.249275,86.017577
49.025472,9.823597,97.681538
23.623886,-44.067131,59.170556
48.085164,13.704634,97.184802
29.492690,-40.375503,23.989031
-45.793334,-20.074126,54.168829
-32.454661,38.035443,38.492681
-1.221495,-49.985077,84.365604
17.506047,46.835225,27.628615
48.367932,12.670564,13.880672
29.577710,-40.313262,24.053432
-49.465352,7.292392,66.285140
37.072084,33.550866,38.576470
-48.001363,13.995326,31.570464
1.782145,49.968230,74.213984
49.984201,1.256822,24.709376
10.617733,-48.859633,98.091278
49.046898,9.716060,49.993292
7.395271,-49.450076,48.052267
-40.363394,-29.509260,95.642302
39.077150,31.192568,92.484643
14.972258,47.705676,56.870214
36.740632,-33.913507,40.783432
46.790476,-17.625304,74.134250
27.020175,-42.070300,91.272181
-11.501843,-48.659096,57.862067
40.576151,29.216022,47.981722
-45.270383,21.227162,9.977037
-47.987757,-14.041908,14.974779
45.509928,-20.708608,4.766847
-37.539358,-33.027210,28.075947
-35.354981,-35.355697,54.816712
-18.081352,-46.616142,19.392066
-32.018404,38.403409,48.739417
-44.090646,23.579969,53.236372
-49.989716,1.014033,58.292018
46.827386,17.527005,73.453023
-48.492383,-12.185598,23.098125
-47.748183,-14.836138,86.315854
-46.174831,19.180328,72.253745
29.462201,-40.397756,48.685187
21.697106,45.047038,53.695802
41.109059,-28.461294,65.621941
-49.979245,1.440505,15.801184
27.224514,-41.938358,55.449820
-47.828650,-14.574643,57.597078
-32.522978,-37.977044,3.670268
-32.528432,-37.972373,77.883263
7.230785,49.474395,2.942581
29.027680,40.711102,83.763654
-39.508992,-30.643752,56.789439
-44.092078,23.577291,31.530935
48.944944,-10.217262,34.733275
-15.051269,-47.680807,38.214978
26.686507,-42.282743,77.769152
-16.402010,47.233188,79.499439
42.312511,-26.639283,62.258321
-21.868773,44.963950,37.132534
49.835731,4.049678,22.073689
39.110288,-31.151010,52.716815
15.993834,-47.372959,69.603436
-21.108043,-45.326047,78.040192
-44.432449,22.929402,90.790232
22.143923,-44.829083,37.645881
-5.611003,49.684169,25.428809
-28.313352,41.211092,22.534486
49.134225,9.264338,9.796649
-45.327678,21.104541,67.978333
-14.296644,-47.912483,29.866150
-18.339003,46.515384,81.955793
49.906190,3.061401,8.084995
27.476537,41.773675,82.189793
-48.570347,-11.871033,21.451620
-41.081569,28.500960,12.676758
-6.441367,-49.583352,67.071976
34.732098,-35.967783,89.342829
-44.872449,-22.055914,42.290138
-12.903774,-48.306238,42.008826
-48.089204,-13.690452,46.977296
38.050767,32.436694,87.232320
-33.304151,37.293881,54.006940
23.708836,-44.021485,35.132274
-14.535854,47.840453,40.498851
-48.767763,-11.032011,92.703981
41.646730,27.668572,73.265022
14.896086,47.729515,12.433028
49.170014,-9.072469,57.191968
-25.428660,-43.050938,65.702872
-21.868948,-44.963864,49.526346
17.927938,-46.675358,86.800395
-48.373889,12.647800,22.834262
47.660954,15.114016,84.903374
5.879631,49.653096,43.406384
45.193759,21.389814,71.968883
47.753985,14.817454,82.119138
-44.633037,-22.536460,25.681263
-49.831795,-4.097827,73.346751
6.835331,-49.530579,23.153217
16.017217,47.365059,70.556372
-38.190539,-32.272012,54.345070
21.301000,45.235687,7.044775
38.997314,31.292324,57.924591
-22.570413,44.615877,63.387366
48.943412,-10.224601,80.565943
41.788231,27.454394,49.721074
41.988077,27.147770,39.521499
0.501769,-49.997482,13.191812
-19.129394,-46.195955,73.398203
-43.597198,-24.480285,7.811355
47.094610,-16.795766,90.519272
-48.861095,10.611003,92.381835
-25.654012,-42.917033,38.347039
24.853565,43.385485,60.305726
25.421247,43.055316,9.791490
-0.851072,-49.992756,22.815169
-11.327319,48.700019,17.808510
-32.283446,38.180874,49.948808
-49.983686,-1.277174,51.359969
45.840464,-19.966268,90.770893
46.999351,-17.060511,45.263800
49.875783,3.522258,88.553688
49.485293,7.155825,89.215317
45.362223,-21.030186,41.467884
49.571159,6.534541,89.693780
16.352076,47.250499,16.628465
-45.232247,21.308304,51.971565
-40.164873,29.778901,99.100031
-46.571742,18.195406,26.431190
-49.091096,-9.490220,44.332394
38.279247,-32.166741,28.123532
-49.698151,5.485780,80.304795
-8.721808,-49.233424,18.542882
11.727112,-48.605297,48.603147
-42.844707,25.774621,39.994346
-49.397118,-7.741110,76.127229
49.949788,2.240245,46.949934
-39.432533,-30.742078,32.528149
32.254447,-38.205375,85.394505
-16.474677,-47.207892,55.448570
42.004550,-27.122275,24.507084
17.816047,-46.718181,92.771047
31.553533,38.786268,41.763214
-14.992086,47.699448,20.500230
40.399389,-29.459963,53.454500
0.004300,-50.000000,2.765816
-46.122431,-19.305994,45.665602
47.252318,16.346818,73.179881
-34.651111,-36.045812,67.102633
18.406658,-46.488654,24.713428
49.958323,-2.041076,23.228610
11.645482,48.624919,65.226100
-4.983628,49.751015,72.827846
12.363316,-48.447378,40.082639
1.721405,-49.970359,64.073393
20.135044,-45.766582,89.335468
-31.048466,-39.191744,38.901419
48.828485,-10.760066,44.548782
-20.558151,45.578092,50.723772
-30.957515,-39.263625,93.131072
-26.285834,-42.532986,68.198824
41.734941,-27.535335,18.963231
-7.625986,-49.415021,75.089752
35.239374,35.470925,62.938397
49.225804,8.764716,23.809644
-31.401223,-38.909680,32.926140
6.557676,49.568104,97.943149
45.773935,20.118322,59.608010
-22.897688,44.448801,94.005358
-41.177622,28.362007,60.371307
-1.507644,49.977265,14.442425
46.907083,-17.312584,82.725294
49.750101,-4.992739,5.534945
-43.519832,24.617559,64.363128
-19.895365,-45.871281,35.562129
-26.389371,-42.468825,54.885751
-34.338274,-36.343953,92.314197
-48.258329,13.081807,3.143059
-40.466039,-29.368345,7.085686
47.224716,16.426388,63.688249
-4.044028,-49.836190,40.823377
3.507987,-49.876788,14.376235
3.228673,-49.895648,96.771851
46.996528,17.068284,14.488924
5.761628,-49.666927,50.563057
-8.444403,49.281762,93.999494
6.613266,-49.560717,46.731166
-40.308469,-29.584241,62.794849
-9.730153,49.044104,15.135614
-35.298349,35.412238,49.304611
27.746843,41.594624,29.734123
-17.246172,46.931541,1.861577
44.758910,-22.285420,1.718933
45.859615,19.922241,95.862239
43.319663,24.968115,38.399364
-35.409566,35.301029,50.971668
45.107665,-21.570779,64.469629
48.223245,13.210550,63.465742
-48.002449,13.991600,36.038126
28.465373,-41.106235,34.357387
-27.389170,-41.831010,4.169007
-20.856304,45.442432,84.984482
-35.716581,-34.990368,54.545404
-23.472806,44.147790,17.335995
48.781312,10.971945,61.694230
2.604216,49.932135,25.046413
-18.018143,-46.640610,23.694474
41.782749,27.462737,24.365755
12.220739,48.483539,7.082102
-48.964931,-10.121046,39.640293
49.987959,1.097267,82.946900
10.721425,-48.836984,37.408875
47.326402,16.131078,63.079273
37.179310,-33.432005,42.194816
17.273638,-46.921439,37.983007
-24.680443,43.484201,31.927387
46.540163,18.276028,7.480222
-25.755445,-42.856237,86.111137
40.858683,28.819578,1.572600
-48.461644,12.307277,45.566621
-43.037386,-25.451590,62.042496
-45.123456,-21.537728,10.901618
49.975687,1.559078,56.457269
3.347373,49.887825,11.307507
49.090792,-9.491794,95.681771
46.373687,18.694415,55.863440
-19.283106,46.132004,46.290474
-45.548231,20.624225,60.164368
-4.110627,-49.830741,47.075075
-38.893222,-31.421606,18.893382
23.210231,44.286400,27.028870
-48.123130,13.570715,48.049812
-44.590816,22.619884,40.356828
-24.218004,-43.743437,56.794379
31.605290,-38.744105,42.303811
-18.110804,-46.604708,99.182758
49.951543,2.200759,38.363422
-40.639787,-29.127439,59.340834
-9.042905,49.175460,26.423171
-35.511859,-35.198123,5.098274
-13.612688,48.111274,12.986559
-24.954634,43.327431,67.309455
48.780867,-10.973925,31.817299
12.023175,48.532909,28.272470
33.821695,-36.825167,76.133099
-48.552026,11.945742,24.091092
-1.017967,-49.989636,77.642413
-20.004064,45.823983,84.863112
-44.609578,22.582859,28.920256
-15.172048,-47.642512,79.042880
-3.556371,49.873362,26.762757
34.503546,-36.187087,22.845412
44.899956,-21.999862,95.296101
45.357932,-21.039438,11.552924
6.376973,-49.591675,85.562485
20.957496,-45.395852,1.536406
25.655692,-42.916028,6.256613
45.136759,-21.509834,73.844495
-29.589100,-40.304902,42.041566
-42.435952,26.442200,7.053883
42.798460,25.851341,63.792697
-48.211099,-13.254810,13.550906
9.075968,49.169369,32.647986
35.911191,34.790607,5.193271
29.614957,-40.285908,55.355953
-41.832373,27.387088,30.430139
-17.843658,-46.707643,66.873596
21.145299,-45.308678,78.609161
41.559182,27.799899,91.052951
43.112963,-25.323357,40.488105
-44.121549,-23.522094,24.910257
-46.347540,18.759145,21.479688
-22.593915,-44.603980,50.271455
46.168786,19.194874,4.217195
3.264927,49.893289,53.413454
43.606632,-24.463475,88.849669
-49.336896,8.116075,78.831082
-49.959705,-2.006960,35.269135
25.507752,-43.004123,8.946960
8.369828,49.294482,18.729405
27.682026,-41.637789,20.176110
40.047903,-29.936023,12.596570
1.158735,-49.986572,72.779361
-33.154560,37.426931,66.182795
45.623400,20.457405,26.097532
40.457035,-29.380747,30.946907
-5.608538,49.684447,89.105021
-45.477959,20.778721,44.605534
47.389960,15.943390,99.397517
-45.147918,-21.486402,86.005880
19.226003,-46.155832,93.876745
43.593687,-24.486536,88.402758
-23.889514,43.923697,50.134815
27.356777,-41.852201,33.449838
43.601564,-24.472508,63.752040
-41.119104,-28.446780,69.609913
10.320212,48.923340,69.282477
42.125750,26.933645,61.262801
33.646953,-36.984897,21.507226
32.163382,38.282070,4.817110
30.085569,39.935680,59.310702
-17.974329,46.657513,94.412967
48.966165,10.115070,20.769070
-30.556768,39.576306,66.861566
27.206276,41.950191,15.976162
47.907371,14.313764,73.117691
16.581311,47.170543,57.974925
36.006109,-34.692364,0.067454
-19.549295,-46.019833,44.764801
-35.957398,34.742848,88.810681
44.438474,-22.917723,25.730284
-44.146276,23.475654,43.283183
46.043605,-19.493241,10.890514
-42.037711,-27.070848,69.615483
12.211254,48.485929,57.225562
-31.710101,-38.658369,41.020343
-19.338497,-46.108812,28.070458
-5.225702,49.726171,49.806634
-32.042681,38.383155,49.540612
48.353407,12.725881,5.295830
22.391678,44.705847,10.367510
13.352619,-48.184101,68.209309
47.126232,-16.706832,25.455887
-44.250193,-23.279184,6.084922
-14.800627,-47.759203,48.715995
-36.700495,33.956938,35.930403
43.210563,25.156456,87.083850
-47.093898,-16.797762,72.149820
19.907581,45.865981,32.655129
11.805871,48.586227,21.115665
6.351260,49.594975,39.129412
36.609872,34.054622,4.107935
39.089822,-31.176687,98.065422
-15.585902,47.508732,18.297402
46.187001,19.151005,26.578048
49.947868,2.282643,19.978445
19.074265,-46.218745,30.822550
31.559822,38.781151,76.853872
24.893912,-43.362347,70.572341
30.412684,39.687135,37.419362
-8.433844,49.283570,68.677702
-3.457794,49.880293,53.038498
46.789329,-17.628348,99.048427
30.362998,-39.725160,58.443551
-11.505729,-48.658177,50.383220
-47.830776,-14.567664,93.346693
-7.125280,-49.489700,76.571668
38.163280,32.304242,35.790713
39.369879,-30.822275,34.569470
38.787210,-31.552375,5.658364
49.776594,-4.721298,6.767842
-42.473925,26.381162,90.598844
9.303656,49.126795,37.829697
-39.454811,30.713481,0.761056
-18.811615,46.326269,22.508681
-48.817754,-10.808649,94.935974
35.552090,-35.157487,81.265729
-24.992073,43.305846,86.468765
-44.428507,22.937040,21.478024
42.429901,-26.451910,58.123312
25.328557,-43.109908,60.884396
-35.897859,-34.804364,74.985805
22.649354,44.575854,83.944997
49.102836,-9.429288,86.172444
-46.843952,17.482682,75.243913
34.810006,-35.892388,75.013891
-2.376305,49.943500,52.582093
15.807130,-47.435584,10.693823
42.178440,26.851055,39.470150
-23.933923,-43.899514,1.480372
49.879531,3.468779,63.829604
20.788618,-45.473436,14.023470
-22.437928,-44.682652,40.157724
22.740525,-44.529412,66.659883
-48.467484,-12.284259,93.134556
-6.106074,-49.625758,10.386172
10.846178,48.809430,47.162060
-36.728507,33.926638,47.725140
21.840577,-44.977652,78.375453
40.772477,28.941408,96.141920
48.578789,11.836436,98.460794
-30.652011,39.502585,95.734209
45.247209,21.276514,17.450949
-9.315123,49.124622,1.067500
-13.456411,-48.155218,76.279425
5.978425,-49.641298,93.426671
49.942204,2.403379,85.755697
23.952511,-43.889375,56.187416
48.381014,-12.620518,10.867535
29.606979,-40.291771,88.664709
-45.525591,-20.674151,25.742881
43.443049,24.752808,39.048674
37.778206,-32.753735,89.713039
11.995264,48.539815,41.637250
-34.796352,35.905625,36.464931
11.728635,-48.604929,58.077297
-21.261857,-45.254098,98.088391
48.621940,11.657914,53.794430
-30.737455,-39.436136,97.581133
-3.848206,49.851693,72.251662
-9.449394,-49.098971,99.477602
40.747373,28.976742,14.997298
28.301489,-41.219239,82.018658
34.847824,-35.855671,16.077376
-0.630343,-49.996027,43.995367
-45.964740,-19.678482,44.964874
-18.529617,46.439781,80.736642
-49.405637,-7.686546,1.702153
-49.993794,0.787779,9.178796
32.975971,37.584376,16.072618
-47.346216,16.072829,70.028209
-19.338181,-46.108944,51.602562
7.499458,-49.434382,7.245189
-49.512912,-6.962153,93.665683
49.763638,-4.855957,58.695848
-31.164492,-39.099545,34.462571
49.998455,0.393083,43.631895
-38.098057,-32.381137,51.802388
-38.713259,-31.643066,48.410138
46.251587,18.994492,40.815797
43.740838,-24.222698,7.688702
25.739790,-42.865641,18.822492
-18.196674,-46.571247,69.144508
21.482004,45.150011,21.981422
38.551034,31.840505,12.660473
48.566866,-11.885265,90.371662
-0.364034,-49.998675,85.286733
-49.927913,-2.683932,46.551263
-40.779070,28.932118,78.022147
-29.936014,-40.047910,84.613182
49.966131,-1.840036,85.801802
-48.417814,12.478595,5.823485
-22.742429,-44.528440,48.853062
47.850502,-14.502741,79.073764
23.703536,44.024339,51.249640
-48.144788,-13.493681,6.656544
31.166106,39.098259,94.150362
-21.722512,45.034792,57.147689
-38.876768,31.441961,50.871951
-39.136859,31.117619,80.998816
-39.586641,-30.543376,80.387552
-2.184759,49.952245,96.945251
-17.607204,46.797290,96.532380
31.369092,-38.935589,91.764822
19.655978,-45.974368,12.485925
-9.031296,-49.177593,31.471156
38.685941,-31.676458,17.677082
40.764801,28.952220,43.755403
-44.656896,-22.489144,71.870396
43.369227,-24.881924,21.146649
-20.534635,45.588691,22.300029
-43.164181,25.235957,71.213493
-41.669460,27.634328,51.193901
-49.846670,-3.912736,44.232592
-46.877697,-17.391997,89.427721
9.055039,-49.173227,22.430017
-35.076118,-35.632373,57.672744
29.806944,40.144067,21.423508
-14.598675,-47.821321,95.824172
36.412841,-34.265216,31.162625
33.881408,-36.770235,60.978388
44.899611,-22.000566,38.850897
3.525609,-49.875546,14.429880
-18.570372,46.423499,43.219634
-45.371548,21.010061,67.866514
-46.174635,-19.180800,91.445262
