x,y,z
-33.166654,-30.408570,0.825996
46.869687,59.685151,0.782667
94.440085,-180.833223,0.193912
-47.204565,66.443805,0.569645
-20.171116,-38.812457,0.693046
-10.056445,-13.977186,0.312704
-28.843345,127.557862,0.621743
7.293824,-55.941538,0.707105
86.597060,-22.430430,0.214858
-87.590360,105.087792,0.418518
-115.045709,50.849925,0.878234
275.391807,-126.951512,0.999708
193.010195,-208.502643,0.309620
-80.656139,159.893767,0.072012
108.395116,-263.252354,0.203831
117.788365,202.873619,0.251975
90.560462,48.028764,0.971824
89.982657,-42.793231,0.538277
11.739741,135.080500,0.406424
-5.286181,-39.594039,0.891705
129.381831,-80.810022,0.933567
-138.509634,-44.829786,0.181492
8.857864,8.183915,0.828426
-66.721373,37.494064,0.189615
-152.557022,60.334819,0.856278
58.306781,57.431036,0.575645
96.207343,-60.490608,0.487763
-1.819148,181.767154,0.075411
-65.779834,-246.939153,0.666282
-21.868751,-131.397092,0.979834
-36.774456,31.216949,0.525550
72.603290,-141.476962,0.880146
-139.141858,-55.765281,0.798065
-109.687787,-126.005653,0.181681
17.647098,20.487857,0.694685
43.756690,-12.465416,0.562573
-99.562611,-120.993507,0.397633
-47.666134,-99.046137,0.016656
65.854659,70.240050,0.308876
110.562546,-55.596372,0.376726
13.817649,55.388445,0.698009
93.230914,-153.563882,0.886223
116.818774,-17.708276,0.345268
-68.750855,-120.270614,0.981305
-82.662650,-82.908009,0.106685
147.433649,-137.346273,0.825160
105.799670,61.213817,0.014980
63.500901,-43.734556,0.807534
-167.837033,-42.069032,0.472403
-38.482658,16.766037,0.054744
85.679399,74.486444,0.088065
-51.164724,-158.203880,0.644287
51.664688,-59.368111,0.239281
28.878811,-5.429089,0.319853
33.280927,1.283319,0.926793
-26.149433,-289.150824,0.364269
19.774644,19.013365,0.371069
73.627554,138.898978,0.457471
-54.478576,180.756137,0.797990
-8.888017,-144.193147,0.099680
39.218861,-58.964491,0.641692
-27.054896,-71.933038,0.658462
147.750228,39.221657,0.835681
113.901548,-20.201172,0.573572
158.326816,126.294927,0.853081
-245.707584,15.536975,0.146538
-49.112832,90.069797,0.275367
-51.989118,36.448431,0.999532
-146.211629,-138.565231,0.900640
82.120386,105.636148,0.398025
26.190098,-2.942735,0.371557
207.775319,56.457805,0.943519
-51.005595,220.935495,0.243025
128.141348,43.786932,0.816501
-121.123317,-80.407468,0.510160
124.022796,-18.490298,0.683973
-204.592296,96.211934,0.687241
-108.743767,54.751370,0.177955
-39.756628,-128.194595,0.144954
67.984767,-58.770070,0.159179
1.613415,249.001481,0.316476
-177.104422,140.569989,0.494410
261.373871,98.564518,0.424827
159.509240,37.547968,0.500167
-32.837508,-76.772107,0.502982
-32.894339,27.514684,0.712326
-62.156903,39.677921,0.739863
-29.429463,149.383542,0.450613
26.060811,2.734959,0.463628
6.933806,8.163185,0.885411
-146.807626,19.884189,0.564166
-132.506121,77.292250,0.725943
60.916953,-37.390929,0.019531
-32.087513,-143.684418,0.545910
156.352126,-50.786037,0.049176
26.197797,72.031327,0.478358
-85.603686,77.760860,0.179175
-107.350977,-41.470731,0.675668
80.752298,-103.693976,0.274697
-84.517844,98.720624,0.062259
-186.185609,118.308575,0.074810
138.445862,-65.691132,0.952905
69.571171,-25.500539,0.308637
-75.393314,-1.409418,0.631390
-127.906450,138.412921,0.165726
-141.620927,-125.001040,0.207769
-81.557231,88.374343,0.588371
36.032208,126.425891,0.479453
-52.975952,-114.815576,0.108193
-123.588263,-159.874803,0.073964
81.957168,-3.414032,0.011513
148.800012,86.526217,0.671406
3.889462,99.897871,0.085984
-87.496731,111.349317,0.339508
64.725178,-199.351531,0.219255
194.153800,118.376283,0.111788
-4.892379,21.100595,0.385750
149.043154,59.326208,0.940074
-279.073774,181.756938,0.294278
18.511295,-40.113975,0.962758
-96.014896,103.895418,0.895588
-74.987482,-48.181094,0.551325
-36.388780,-82.372270,0.203990
9.102394,-30.253819,0.176104
74.393111,-55.691436,0.453864
-153.249147,65.587547,0.696774
-22.723843,14.090489,0.696919
-8.968556,-112.361874,0.538228
3.593047,32.444976,0.197788
-16.956230,-129.923954,0.821767
17.728814,52.689503,0.495478
136.808737,-55.647664,0.300414
-60.048769,130.829433,0.705786
85.540784,110.463511,0.727255
-15.415521,-53.733709,0.036768
109.075053,-32.866582,0.881316
-46.294022,-55.840666,0.956759
186.829509,63.965982,0.898030
1.321098,-75.307939,0.913084
-20.788605,14.625275,0.735801
-9.077049,56.369442,0.768069
14.678832,86.469958,0.013937
93.269711,-244.278310,0.026274
70.907780,-156.676617,0.981570
-59.964121,16.835328,0.928117
124.040722,-26.641232,0.126486
-160.725729,93.020111,0.019181
-17.565805,-61.712132,0.954607
-134.238934,44.173139,0.560484
101.824181,-3.120390,0.724508
-5.359231,-219.828648,0.099051
-138.865876,7.852966,0.480375
156.781598,15.897454,0.971617
-174.527410,-41.115410,0.971572
106.641324,-104.429383,0.196695
-54.986417,-64.376944,0.791552
-65.925287,13.169823,0.359280
129.871145,-97.752834,0.050227
-78.427471,-186.718806,0.718156
113.299305,-291.093155,0.773006
157.993112,-11.584620,0.158042
-51.532083,-74.229753,0.703095
-21.624186,-44.374073,0.388389
43.888992,-39.414782,0.092316
-49.748192,-86.274903,0.821586
20.881944,144.846391,0.370984
111.136390,76.411005,0.838778
28.564005,27.066598,0.360906
-14.310390,-49.201606,0.253087
128.873405,-42.385072,0.369091
18.713212,-7.558853,0.620628
-148.640898,87.399052,0.421441
31.189781,-123.617395,0.671375
24.209205,-40.508369,0.888986
-55.555826,-134.202523,0.714609
60.713786,-13.501746,0.686933
-44.708455,52.077202,0.437839
-45.753849,7.401897,0.393218
71.210268,103.383485,0.748501
-80.166434,-110.662773,0.736604
-10.230292,129.164156,0.279939
-52.970797,-5.876144,0.665064
99.876792,-45.201690,0.199491
150.495409,-11.699170,0.693531
42.873221,101.144072,0.453975
79.489757,63.975772,0.233651
104.332974,143.764369,0.796724
-31.021911,-37.846582,0.044724
51.982358,12.766385,0.147128
-25.125495,0.713794,0.419513
-141.157226,52.444446,0.892556
234.527648,-70.656973,0.239293
-224.662328,-160.957763,0.393636
108.531543,191.188343,0.674811
42.328068,-36.750557,0.637481
82.053675,86.271231,0.625582
-12.174991,25.541164,0.145115
-122.273500,-184.717736,0.731812
44.368405,-54.013594,0.340920
-72.126899,-42.972295,0.613168
-43.861739,-251.574231,0.718993
114.515201,-48.354833,0.708984
-44.970154,-69.826147,0.291812
-52.999822,37.627527,0.508633
68.357591,30.904215,0.106284
-27.349864,-24.618603,0.687793
187.142180,83.012259,0.771932
167.473649,-52.499154,0.635229
132.261353,109.925615,0.480582
48.783179,160.922493,0.689720
-22.826377,12.033786,0.362549
70.572599,-65.665250,0.303678
206.864239,123.518496,0.967389
-42.322871,-88.958729,0.155829
124.627691,-24.234964,0.145733
-141.046327,14.983466,0.621706
33.887620,9.664997,0.201535
-15.403323,-70.271695,0.943155
165.348540,-69.336147,0.805908
2.853149,-44.741063,0.025970
-28.782905,-3.260290,0.343223
-64.528711,97.505012,0.252511
-46.387026,50.441132,0.763280
34.757443,58.007599,0.068167
-95.034833,28.215110,0.703534
5.786681,-55.226811,0.496297
-2.296483,113.411199,0.937477
-22.911020,291.243669,0.289891
-71.995776,65.046586,0.101663
-117.428066,99.825715,0.822881
-124.673926,155.286273,0.928730
-181.203866,113.646777,0.277877
-30.873370,27.833750,0.422670
136.569784,49.354076,0.779119
-106.038639,18.829338,0.916956
50.658340,108.789322,0.830251
135.764579,124.758250,0.143692
70.964055,23.181471,0.825675
-46.722596,80.498114,0.965313
-119.250897,-101.228548,0.427119
-81.526803,-28.886219,0.291247
136.454163,-17.139985,0.794117
105.960443,29.192774,0.284524
69.965170,33.151962,0.104642
74.356543,294.922609,0.245623
-149.999361,79.026572,0.226278
43.782383,-12.117341,0.297968
-42.342432,-124.941597,0.974834
-59.637267,78.449779,0.487540
-23.807424,31.471672,0.075771
-73.278089,16.064574,0.124706
72.415467,25.732983,0.224920
-134.030343,18.855941,0.272852
5.314065,-13.258486,0.813682
-118.691117,40.620651,0.937024
79.281821,6.002308,0.284060
28.765337,0.672105,0.196538
19.794970,-93.572805,0.827146
44.228787,-22.565479,0.056643
-47.011365,74.226656,0.790064
-61.760040,123.096196,0.862915
196.535300,-133.558427,0.425270
-78.252600,153.868861,0.434836
-76.308752,-16.496027,0.883240
-65.426832,-30.163640,0.321746
-105.866342,-132.391893,0.505633
-58.020105,201.349568,0.189797
-35.067592,-22.862085,0.340849
179.221732,-41.404182,0.834632
-68.252151,37.206045,0.444060
-74.444132,-195.559916,0.558064
136.096645,91.275943,0.177610
-171.397197,64.873006,0.968408
-151.494190,101.322380,0.065278
6.810519,79.963803,0.687093
296.513434,-4.940787,0.245223
26.526398,10.815553,0.858940
71.536875,112.111122,0.994014
139.510276,-63.328142,0.147886
-1.967669,31.466519,0.391950
49.537771,-34.001236,0.830559
-181.332055,-186.610656,0.211233
69.225249,-112.538983,0.583619
169.423539,17.027466,0.092136
56.277546,93.417386,0.247406
-127.633190,-55.697923,0.853569
20.023065,133.460856,0.654354
134.451406,-13.166144,0.308491
101.051980,-126.487708,0.811600
6.629239,112.777482,0.775154
-23.303158,55.300609,0.630581
3.079265,-169.286104,0.865551
-15.053191,-90.058625,0.980405
-56.460767,-198.931010,0.393581
-55.961359,-2.632353,0.703094
38.628191,37.825998,0.517091
98.521228,-128.707033,0.378101
-74.612582,43.841667,0.871354
45.387152,-28.156441,0.184109
-78.030193,223.542054,0.877758
-32.469303,-12.268251,0.542726
171.823712,-135.620392,0.665104
-185.172118,-7.248000,0.659689
51.524781,46.581995,0.616343
61.834150,-139.230281,0.178633
-33.092978,32.859744,0.541444
39.199807,65.764620,0.588802
94.668345,-164.091080,0.977731
131.645088,-89.931089,0.565450
15.507184,28.082793,0.902679
85.567315,21.756106,0.684216
191.227598,-45.910258,0.056659
25.298980,98.163277,0.223615
-59.316514,-213.919640,0.337682
181.571773,186.661902,0.035664
216.938639,-88.263523,0.775368
-211.145977,119.299772,0.906524
-30.479183,123.311006,0.070634
3.726083,29.238466,0.824935
1.960575,94.322041,0.755058
-3.057035,43.490418,0.207117
-26.033657,44.123017,0.627265
-131.881611,23.312268,0.778102
113.841078,87.000067,0.939428
-184.785329,5.112780,0.762524
-89.648699,51.671582,0.451489
180.932680,-58.124898,0.342550
72.602136,-79.399827,0.684450
-153.638651,107.308069,0.569012
-22.628589,-219.189147,0.890111
76.171991,20.063017,0.373858
100.908610,-73.130567,0.176084
-25.139416,-19.464518,0.727843
-34.248485,33.354015,0.855036
-57.617815,-116.746195,0.453509
-118.699956,-105.928607,0.497563
112.562833,135.244558,0.979041
-83.569686,-115.554817,0.171896
64.260428,1.092279,0.257481
157.687797,53.073212,0.825965
-62.555420,86.360202,0.909316
27.821659,78.669328,0.480135
-197.106354,-36.230225,0.431077
167.425790,136.489337,0.040831
-124.300579,140.860956,0.490418
-98.616666,20.147804,0.726304
-27.653927,-2.040802,0.575015
103.108587,-86.455131,0.603429
-81.146910,145.877441,0.504654
154.824925,-2.546224,0.835371
118.754968,-154.894552,0.533721
-24.133439,74.367277,0.436697
112.189937,-150.540272,0.054579
20.509822,174.932572,0.767240
26.725560,44.783005,0.592598
-19.669629,-39.532050,0.501422
10.812627,-20.698100,0.950686
-111.334709,21.479188,0.204258
-144.710106,-67.883499,0.090012
-22.004942,-220.865656,0.383938
-103.145140,-82.073395,0.174296
-10.222427,-83.793755,0.243595
-7.077236,-102.859560,0.479448
-68.376914,-25.152614,0.403002
-158.344799,50.226515,0.809568
-38.103892,46.519160,0.576825
-119.345817,-59.449793,0.055157
17.006649,-68.660691,0.047202
-131.177002,-153.324652,0.355951
130.843282,-166.723983,0.339325
-136.346660,114.827150,0.775416
17.392937,25.446310,0.855787
47.168175,109.037718,0.505016
60.196094,-82.913085,0.967727
-170.827531,22.622289,0.703314
-42.068933,-2.961719,0.864289
-70.724995,-69.834283,0.827676
-30.000361,-176.913282,0.925296
-55.906155,46.181216,0.284073
-12.649978,38.707980,0.700399
-60.290783,-131.518387,0.079776
32.090017,-166.568648,0.462389
110.088747,-85.650093,0.661275
13.449463,21.586532,0.926952
-187.691950,104.874091,0.138870
152.578975,-91.705661,0.401436
-40.368761,-154.870561,0.851845
-63.186016,28.741274,0.714353
-2.923068,-103.182855,0.283360
101.936118,-2.095760,0.908694
179.749596,-52.543723,0.357599
23.249343,0.032912,0.193035
48.065471,21.002467,0.074634
63.365653,-29.293273,0.009435
-43.119438,176.405700,0.038796
-60.114793,8.387633,0.414826
-10.423542,22.184993,0.661931
26.327073,-64.725303,0.100050
-19.263691,75.597382,0.700314
71.784991,-108.595671,0.896910
-77.955959,52.446317,0.032172
114.116368,-60.253693,0.595092
-43.259449,179.907905,0.576110
236.901321,-48.817855,0.259034
-278.118058,-156.427997,0.963920
47.638945,110.160486,0.057479
55.153528,-27.176573,0.386031
-105.177014,57.002544,0.616452
-182.518262,100.167930,0.447183
-78.314514,26.769018,0.277812
-46.348821,245.998964,0.291594
23.380969,-47.342178,0.681381
29.016029,-86.783214,0.008420
33.528237,23.574938,0.617211
-8.498815,-96.113561,0.071248
11.527933,-110.326260,0.581776
187.852639,31.786741,0.333902
-1.819994,32.620240,0.732980
42.345571,-17.171370,0.652082
97.595448,154.404541,0.343446
-115.903775,36.985217,0.774509
-136.439287,-98.166904,0.599544
213.765251,-61.972490,0.002468
39.362747,23.579363,0.580794
92.054802,-37.362982,0.014043
86.971443,-136.514084,0.253509
161.867809,179.583668,0.046655
-69.435782,-41.757444,0.156818
137.102015,64.135827,0.934767
120.699526,30.733559,0.054949
102.220452,127.557466,0.960114
-214.556650,109.729884,0.341833
-15.442698,31.004108,0.467063
-106.499979,-130.783893,0.968905
-114.545082,-31.471278,0.854570
169.367256,-35.466311,0.441229
9.416507,-81.118121,0.148454
-5.218350,66.632525,0.681406
-93.482123,4.902152,0.268756
173.368952,1.382323,0.799355
36.973381,48.845253,0.791482
155.651885,-106.960145,0.021017
-12.639847,-1.243121,0.834276
-119.511479,-107.821200,0.823140
-22.668407,-50.838118,0.606992
93.746506,68.178730,0.310243
86.574175,1.305891,0.558844
-12.232135,-91.438843,0.471726
-66.900580,4.230134,0.071623
-25.924624,1.380367,0.539988
-2.872070,-45.808351,0.899558
41.105598,-3.441532,0.123511
-233.017463,-125.795486,0.910198
26.185360,-8.100410,0.058474
118.034735,-2.186636,0.415068
82.162519,95.872168,0.745908
-138.595971,45.786395,0.415050
-203.644616,41.499560,0.486222
116.273012,-76.916912,0.204226
-24.238446,15.111380,0.812418
-153.121903,-157.728069,0.635026
-118.169309,120.119375,0.452537
60.029991,-38.669575,0.813064
84.908287,255.186350,0.693745
158.309945,-110.678075,0.589739
-26.905501,62.233926,0.615672
51.410907,-19.458977,0.314532
166.668747,201.369680,0.506007
-5.895039,32.596240,0.034902
-240.859572,-84.088064,0.788983
-46.277965,131.085462,0.843397
127.001254,-137.687638,0.928494
139.293250,20.822012,0.163772
-21.181143,-12.787765,0.787392
-54.033143,199.785388,0.877935
-39.996163,-43.036728,0.120050
24.630821,73.272000,0.023943
34.630344,58.311286,0.258051
3.608676,20.533895,0.418572
138.878388,-114.702825,0.841853
184.618713,-215.893451,0.138805
143.693178,58.923815,0.741323
-50.055508,-44.180545,0.500710
-153.644714,-121.556048,0.977261
-72.068484,-53.556952,0.698588
2.753136,46.468853,0.446550
-34.843127,83.851864,0.962811
-22.874917,-38.488876,0.467075
305.422507,92.413909,0.670805
-118.584569,282.386176,0.998120
-191.833213,-71.143166,0.690956
-263.691796,70.443918,0.255931
-70.932371,-133.474913,0.138767
-172.741608,35.609955,0.442212
-92.776047,68.084692,0.276427
88.970999,-57.152393,0.499478
-44.485762,1.261916,0.989115
-10.191210,-72.430261,0.161350
138.576547,82.931255,0.184701
-206.673259,-77.470886,0.125214
-42.541224,-31.256562,0.260097
75.239461,165.098030,0.951640
114.147092,-91.397396,0.179875
20.658047,33.907762,0.177369
35.120423,-169.543997,0.622069
18.736271,5.630247,0.339500
-161.328539,24.579238,0.319385
-68.396608,146.948371,0.131298
9.418638,5.804526,0.595028
43.872911,184.744690,0.228674
-56.953971,-38.761258,0.384058
-14.500331,39.820132,0.360291
-114.604876,-6.927059,0.683516
44.165563,-180.143721,0.961204
205.678774,-52.138741,0.864252
16.866089,64.421617,0.026934
15.074412,-1.536773,0.299838
-8.368359,16.239752,0.504485
-18.811885,-33.924295,0.618807
-49.022444,-107.160082,0.235256
43.799475,56.311362,0.000532
66.178596,14.304108,0.055245
9.202267,90.062995,0.422453
-30.333302,-15.906081,0.611838
128.033497,167.904949,0.312217
94.253994,11.698533,0.705370
-112.811097,-174.642650,0.973126
19.604471,-52.604325,0.748914
65.289620,90.427000,0.049870
-225.756370,-87.677386,0.671167
-1.905174,32.622606,0.062485
135.837705,-122.764499,0.244857
86.123570,-89.332636,0.194740
114.094134,-28.445668,0.692872
28.584301,-20.967509,0.765764
5.902882,-103.645325,0.652317
40.194651,134.394882,0.980005
53.792280,-46.459178,0.229732
173.058477,21.644070,0.884395
24.049501,-220.485903,0.528539
-58.622731,-61.302612,0.690964
-227.067664,127.322233,0.041418
191.705183,52.769422,0.034102
31.687540,162.632588,0.699221
-88.879862,79.260252,0.953506
147.851752,122.312829,0.017929
-4.398503,4.643237,0.107190
-197.710993,-59.506562,0.626828
6.785831,34.791909,0.106321
0.218619,38.640282,0.593906
-246.033329,6.513250,0.360843
-29.284051,29.604696,0.225635
171.057872,110.978410,0.810728
147.921784,37.795215,0.487300
37.067144,-94.481826,0.311646
-60.575043,58.800506,0.520628
84.659314,97.665262,0.908926
-157.603188,61.779663,0.555979
-73.994606,-42.274104,0.679000
-3.633322,62.016692,0.076931
-314.805325,-79.973073,0.440948
29.336281,124.154505,0.016055
44.879562,62.309232,0.007828
64.420473,-0.925312,0.064692
-75.738775,-194.456482,0.534128
-34.555149,-83.106019,0.546619
31.548685,29.498278,0.422815
-52.265240,151.084277,0.046874
66.232369,-9.076681,0.534176
-122.418804,-29.022293,0.139870
98.602762,-171.923474,0.070867
149.429074,11.435468,0.737105
47.751372,26.072152,0.648827
-48.027199,8.875347,0.274765
29.063993,-6.840812,0.313751
-12.265042,138.039108,0.956581
-120.856617,-16.674889,0.352983
-55.215430,73.956713,0.557409
35.283954,68.543087,0.048783
-66.914484,-261.164323,0.706318
101.871179,101.113361,0.163868
-100.883258,-28.477757,0.380363
-204.267525,10.500309,0.616014
-63.128908,98.671911,0.055934
95.363466,-165.697534,0.022230
-318.492560,-37.432122,0.912000
-37.189373,89.344704,0.174385
70.940688,-23.149167,0.833897
29.918136,-142.178215,0.630636
98.584337,73.743541,0.988206
12.620150,53.500080,0.707977
71.117228,-32.144205,0.457441
-4.052089,-50.407762,0.808545
-72.508339,98.424797,0.465032
-19.895580,148.370335,0.698906
-20.768833,92.189136,0.976073
-147.940308,-98.193429,0.727979
-186.984896,-25.259060,0.837050
-93.827279,137.937182,0.837070
-29.725896,-6.698873,0.333804
-70.790825,1.669073,0.453754
104.519243,-101.753268,0.661598
-17.760680,0.816832,0.659586
178.303893,-55.579020,0.680687
-8.263291,92.203981,0.138089
-88.472327,64.335222,0.934000
3.625676,-73.644967,0.272058
-54.871891,18.234327,0.001674
-208.183450,-110.778000,0.060852
63.126507,-11.370563,0.608196
40.604063,23.365918,0.787180
-229.116991,230.290038,0.722180
-34.824028,25.939376,0.408756
149.360326,138.396266,0.821040
-5.887534,-154.563823,0.286150
257.667230,92.721915,0.815430
-103.025383,31.262652,0.971277
80.172045,-116.213796,0.076105
-99.748308,147.367370,0.404905
197.429248,-47.570139,0.792770
-116.494185,85.049600,0.638244
34.719325,11.702493,0.437363
-24.847185,93.653716,0.583226
16.050517,78.318888,0.780455
-6.975059,28.088463,0.969574
-136.377620,-87.271174,0.031771
8.963854,65.464060,0.108145
-109.487620,12.702400,0.363826
63.833930,65.892775,0.725054
-7.468297,-124.398012,0.488445
-51.325914,90.764207,0.569504
97.127412,31.596620,0.367758
-39.024802,34.367025,0.432785
-37.148383,-22.708122,0.957218
-52.540231,-12.061377,0.435396
46.612302,-132.164519,0.175900
131.708968,-119.325420,0.984986
-84.131375,-9.123584,0.522474
-79.804314,18.624990,0.304357
-87.200428,-121.035075,0.401776
59.810893,209.149850,0.706000
-68.519556,25.438761,0.493943
-26.016267,125.980750,0.980576
38.005937,147.441992,0.246468
-82.176458,-86.128858,0.688081
119.904441,56.955678,0.546192
-38.181913,126.425482,0.193698
119.316955,99.859669,0.799666
56.025537,-4.801319,0.167242
-5.768821,92.653169,0.558768
19.992029,-94.609558,0.594504
32.737115,65.677448,0.508490
-31.383094,-93.374975,0.679865
47.408646,76.765262,0.612147
-28.854377,6.661361,0.348591
-27.008494,-61.945070,0.692730
74.672875,20.912353,0.104246
45.002823,7.756811,0.558703
-25.902554,-326.586989,0.583712
94.101014,29.441220,0.456740
60.553695,-16.581098,0.874712
-63.186163,-59.638894,0.738860
57.129402,48.031757,0.620886
-138.303169,40.408023,0.685258
-77.176708,45.681870,0.864970
47.228100,103.492972,0.571965
80.250195,-155.447932,0.619395
-78.339495,113.608051,0.517165
76.594451,49.951620,0.706238
-96.246954,-2.267849,0.249654
26.568967,-22.992933,0.583393
13.987836,47.764019,0.722120
146.488349,72.301863,0.308783
-9.368795,161.297786,0.304140
179.838293,31.925447,0.202638
15.665403,137.312469,0.242603
91.500680,-78.780813,0.141142
-87.987949,18.745323,0.874667
178.628310,-95.633906,0.199865
203.224169,56.078089,0.779575
121.680312,43.378497,0.600256
-44.162340,-30.035282,0.117920
-255.121129,123.050762,0.135755
-136.960041,-214.305144,0.562666
-58.961854,113.924327,0.889592
184.074170,-91.017965,0.924244
-75.276874,23.398295,0.075322
-169.759320,-139.521790,0.576475
-34.210640,57.215839,0.008368
29.183720,-107.210020,0.323262
7.866804,231.133031,0.822825
44.353535,74.690082,0.101475
-45.242778,101.002371,0.892083
-22.422311,-80.751047,0.627008
-121.598834,37.330107,0.662665
31.843379,1.705419,0.257987
-53.282150,102.835340,0.699358
2.747464,-219.532593,0.616500
-85.462653,61.303766,0.656028
-52.303415,7.770037,0.247975
8.331620,-97.464888,0.594762
86.634459,-42.486694,0.572635
-8.230014,26.677005,0.838850
-59.782217,-174.919225,0.384792
-151.512380,43.003066,0.029610
68.317468,-135.107967,0.129616
114.361205,43.678802,0.813992
-12.585354,79.300081,0.143707
83.811852,-79.721364,0.786028
-51.070341,-71.679264,0.902701
17.065815,-140.221447,0.032481
-12.628747,5.690449,0.588916
-177.362266,28.491789,0.158089
-32.288919,-19.252471,0.772332
153.959148,-21.776960,0.701715
-93.991197,-23.551476,0.335526
34.975537,-128.972761,0.756748
129.424170,-27.902112,0.877042
211.654932,-37.846849,0.360353
-67.468241,-46.578826,0.039199
76.931119,-293.458459,0.187606
-20.506098,-18.206505,0.900077
53.367120,-37.742706,0.551517
26.803298,72.022860,0.274119
-160.528494,-53.442952,0.467011
149.838378,20.333710,0.935178
5.413007,-100.112255,0.220856
70.031995,-10.176789,0.992526
15.333508,54.870264,0.595213
-80.978621,30.447385,0.695586
-20.095119,-49.308396,0.436482
50.200891,-21.491070,0.215549
144.149157,-89.788699,0.076781
186.596367,-145.170233,0.924304
-45.895946,-174.494760,0.766279
-174.923499,-110.795145,0.323837
80.681057,54.265092,0.098326
-8.753250,-31.362392,0.267240
124.188996,12.862873,0.263699
54.126515,12.095305,0.421916
18.236330,-48.036624,0.051269
26.318805,-45.435596,0.872393
35.394052,98.121420,0.299041
179.242072,-46.689180,0.267333
-47.276824,32.999126,0.289938
-114.590225,181.152757,0.336641
195.511293,115.490676,0.223827
-65.756369,118.716979,0.738001
-31.540440,-50.604791,0.833073
27.522367,-27.386500,0.855375
60.291560,25.053034,0.071553
-56.943919,40.909042,0.567955
-4.573425,-37.273265,0.986076
80.977763,42.685090,0.649325
7.831501,-319.184382,0.593276
21.592311,-21.254446,0.465952
133.511802,-18.920494,0.838692
31.190439,0.733562,0.258975
-5.519496,28.809655,0.548308
9.086320,-72.816064,0.896588
-167.620986,-187.088967,0.471197
-32.216523,58.940274,0.324187
-119.518468,-102.361542,0.427213
103.555014,-152.763777,0.447214
22.600435,66.947481,0.198711
39.246466,118.336066,0.260005
174.271629,-168.405143,0.448565
113.688738,33.372876,0.548921
107.075829,149.953290,0.851779
-120.025060,-28.290982,0.955712
35.930242,26.153117,0.808600
22.355111,-43.695933,0.118750
-86.484978,-99.057739,0.451233
113.767040,-8.839384,0.975993
95.853233,-27.300596,0.810505
127.460858,-59.020061,0.904180
12.324751,-31.165750,0.277046
62.750806,-146.265317,0.048653
-13.918636,180.782814,0.713224
71.579734,62.166776,0.625467
-12.815212,101.458165,0.184514
-71.932367,-37.302067,0.059921
-134.700442,-5.440819,0.254403
-91.429528,-7.746496,0.131536
3.145514,100.548460,0.798525
117.844215,-113.385551,0.811164
-87.961355,56.799830,0.354507
97.999050,-112.822030,0.405773
-103.532115,-48.814702,0.404565
-138.749760,49.325265,0.529906
20.936054,-43.393485,0.478909
16.108403,-194.408628,0.825743
29.433252,-50.121235,0.290718
-108.303818,-24.645352,0.859269
-151.534083,-54.150496,0.876316
-118.900472,169.675036,0.714119
36.896161,-157.878579,0.827132
-47.071141,-23.018887,0.933801
-231.333015,-33.774965,0.568184
-133.705330,-51.867834,0.456724
79.532724,-60.860871,0.592860
36.630617,33.572992,0.856418
118.343197,111.555120,0.370338
122.205180,-148.014300,0.964034
100.519722,23.553284,0.045994
14.347941,37.594358,0.404651
54.673792,2.901487,0.880379
-2.275523,11.106496,0.074129
-43.025635,111.740773,0.832674
-112.569921,-6.456913,0.238273
-48.629353,-189.879090,0.248947
-7.012164,-31.257231,0.027489
147.521414,151.160162,0.127692
-41.581089,-61.168286,0.656520
8.680756,0.643491,0.892258
-151.651801,27.397902,0.722509
59.907226,-71.971316,0.695232
51.566532,-39.256909,0.878498
-21.781619,-153.567864,0.527910
59.736545,-5.012436,0.736077
79.684633,-3.534081,0.132261
58.559801,56.573372,0.634357
-27.930723,-24.077625,0.347517
-189.033244,-94.660603,0.294148
173.827195,-98.905639,0.452136
-38.330729,101.139555,0.101881
77.954878,-0.662860,0.648433
-13.114603,-79.826671,0.405502
79.073054,-70.656669,0.834287
1.554087,3.671569,0.826229
-43.409211,-44.785441,0.589913
32.033539,94.037528,0.056120
39.240242,26.221010,0.647231
14.533388,-42.914103,0.641338
-141.862816,238.488994,0.002531
93.626630,100.463493,0.600340
-50.950227,-191.562109,0.506311
-56.757230,43.271784,0.537872
95.130300,-101.182932,0.911158
79.059185,20.787307,0.573402
-49.971070,-1.026596,0.407255
35.434058,124.343533,0.079844
-105.913131,-141.748423,0.182994
-30.526137,-46.304665,0.307282
55.729552,15.087398,0.391847
-36.665543,167.914549,0.143709
-95.094664,-192.173439,0.560951
20.455805,137.497332,0.534712
128.540885,-110.187384,0.476754
-15.785388,-21.388829,0.724677
-91.433939,181.722164,0.236766
-32.585586,105.220216,0.988729
9.440516,102.062144,0.077026
126.248457,-225.356101,0.949769
-300.058186,-195.182959,0.751369
122.971682,32.110064,0.984610
-19.369945,-134.142670,0.855004
90.461588,9.018451,0.090105
108.679219,-155.696931,0.085925
19.307203,169.756148,0.216932
-28.333603,-92.690374,0.895235
-75.061497,-137.694042,0.244659
-1.081428,167.443704,0.667912
-172.733924,11.181971,0.178431
-7.306200,163.354346,0.376631
-94.091290,-37.653710,0.875282
130.288364,-135.774797,0.688416
-128.699689,194.460744,0.082760
150.794578,-157.607528,0.906147
-3.249633,110.755462,0.885727
26.034612,92.570165,0.937196
76.740477,-48.748552,0.691861
-136.501782,41.899667,0.307407
-98.892616,-17.418357,0.843024
-44.602424,-65.480508,0.648375
-70.051857,33.301989,0.524999
184.249571,5.773960,0.888090
-93.058743,142.281084,0.365288
75.211339,-238.532849,0.773120
84.302038,100.950039,0.566583
66.593862,65.937623,0.314182
91.007069,-47.898041,0.226886
-42.144225,-24.567431,0.270770
-69.275646,75.548437,0.005744
-95.731137,-1.571650,0.492615
49.059471,-117.563484,0.618857
-2.135557,166.752895,0.105608
26.169844,-36.229798,0.215622
50.342093,-150.720703,0.332773
-44.733314,-159.642876,0.029592
137.883830,-132.597849,0.980205
-107.424788,28.466616,0.931213
-69.230459,86.795293,0.107500
116.164273,30.663539,0.790316
143.562608,47.190895,0.532338
299.872757,68.383948,0.599344
70.816251,-79.124499,0.937770
-12.411455,-155.143299,0.908087
1.985223,-81.873245,0.169615
-24.935201,50.189383,0.011484
-35.937960,42.209115,0.512684
-89.465051,-65.224534,0.469817
-144.926645,-37.251241,0.916686
196.932191,-87.163968,0.081582
172.904710,162.458566,0.692493
-42.667274,86.268677,0.604819
-159.706094,19.227342,0.087212
248.879390,52.479480,0.596461
-81.453385,67.558113,0.534690
6.937274,96.022087,0.037818
66.775046,-20.677236,0.673729
41.490467,-86.874076,0.328958
145.600336,1.239559,0.051111
25.091282,33.931546,0.785214
-105.970199,130.448070,0.584329
59.249501,135.760489,0.625789
177.169157,-75.946577,0.484394
77.377088,24.499316,0.204043
61.754129,-174.291090,0.687438
15.236305,-185.038530,0.115047
-50.359750,226.366352,0.877523
-126.838342,-12.999928,0.911602
4.101229,-36.433384,0.914748
-26.448319,-19.423419,0.634484
-18.589600,-69.543599,0.177789
113.513535,23.038254,0.194505
-227.518017,8.419245,0.096607
-181.416191,-2.970391,0.433415
-168.635205,-51.767536,0.012978
-183.526388,136.104966,0.050404
27.767934,8.650430,0.117189
66.991896,-74.164319,0.964680
80.166452,79.184545,0.228237
-74.410264,47.926974,0.352601
112.737326,39.899760,0.499786
-30.810039,33.299560,0.783928
12.868211,40.977726,0.244351
117.365961,96.615590,0.963392
188.152100,-56.794636,0.931619
-10.793383,-37.218958,0.758569
84.699411,-26.819184,0.896298
-83.857373,96.026571,0.444982
59.915346,-179.530783,0.854773
-212.467782,-28.040330,0.787866
-76.996769,51.607435,0.024334
143.489790,-101.567632,0.708330
-31.396057,-142.043813,0.256935
1.219828,43.412276,0.523044
-84.943300,84.808917,0.025782
-54.167345,-34.176761,0.728461
-77.232753,5.680850,0.008658
-94.371414,18.799857,0.707657
-20.981707,-19.057302,0.423820
-84.170184,98.135493,0.174538
-31.466482,149.852681,0.789288
51.023779,-1.520680,0.751736
36.942065,93.537502,0.901727
-55.974429,-94.693051,0.853214
227.691760,70.712763,0.507649
-36.946219,-68.951315,0.636166
72.348618,-83.252695,0.185578
67.027312,-38.826618,0.169684
-176.771538,132.243430,0.715903
-56.582948,125.951642,0.230896
-49.408457,-29.492588,0.248627
130.743886,-7.099411,0.582832
-9.931053,-8.250250,0.552372
-37.815727,-186.545606,0.374618
211.712935,-3.037216,0.656333
181.524541,19.647318,0.961308
37.939042,3.041751,0.503075
-2.244798,-17.372000,0.375208
25.466515,-26.767005,0.800691
89.652559,-43.797991,0.474760
114.221579,-132.430239,0.469980
229.758079,231.770681,0.768646
22.033078,-109.794656,0.114143
73.671684,56.321422,0.656129
-76.703832,181.706607,0.744553
-81.803100,71.715669,0.705722
95.606247,-120.079887,0.398945
-125.769548,-279.739783,0.981769
104.427432,91.495139,0.870268
-71.103331,31.712031,0.019639
-73.015367,-65.618482,0.710400
237.448486,122.444258,0.979202
51.771030,128.687685,0.135116
100.150735,-0.504977,0.414185
60.108975,-181.542832,0.066293
74.380457,-167.662602,0.589494
-51.128215,-178.711300,0.199048
-109.470443,-52.855770,0.766855
198.251106,-9.983179,0.406700
-8.850879,-50.845191,0.728529
-70.077337,111.327219,0.481129
-77.369673,-232.102810,0.684216
-44.110322,-8.991523,0.170003
-114.524253,-87.183337,0.047188
-107.656466,37.057063,0.874243
-59.937148,129.970923,0.199926
-3.736091,48.907101,0.384122
23.532592,8.804059,0.170252
-59.535799,-82.205353,0.688181
-71.879285,-99.261738,0.132430
-96.505558,15.165403,0.798343
43.386576,25.237149,0.084677
-173.485573,152.867509,0.960680
126.268631,-93.661887,0.471229
-9.903228,-117.237856,0.526688
50.685438,-39.814097,0.849895
109.372269,58.956803,0.894940
25.374239,6.334330,0.785282
-32.081837,-28.989389,0.164868
80.863214,161.844897,0.062177
75.816340,225.332280,0.155117
-1.408722,203.497759,0.408403
33.005207,135.691484,0.260342
22.661783,14.396286,0.285031
-125.754678,135.178302,0.382679
-78.721837,13.028796,0.257346
-44.510105,32.915071,0.686312
-148.123971,32.889357,0.628441
8.381465,66.119322,0.596436
-29.902087,-90.319868,0.731196
-43.587926,14.205744,0.999103
129.764760,-156.426076,0.345933
71.534279,52.102922,0.040388
-94.800937,-137.592995,0.546488
-150.014010,-126.807714,0.986764
-227.010028,55.651215,0.970160
-45.122032,-78.991003,0.799278
-92.201007,170.797971,0.894723
66.264027,29.801452,0.475617
4.780824,123.606103,0.479299
14.747603,30.260269,0.400021
-57.638332,-76.249768,0.714006
-26.798226,-240.234405,0.463025
-111.839223,-135.261409,0.485331
23.027491,157.777877,0.450791
-97.960332,-11.656064,0.251905
-9.619508,93.827622,0.279064
26.062621,86.205289,0.116414
45.020514,5.157353,0.205771
22.819556,3.182709,0.740341
28.724258,12.622293,0.695948
-98.817185,47.435813,0.317042
157.798485,63.125430,0.326607
-72.363402,-218.271084,0.961791
205.444672,-16.178134,0.187675
197.773946,37.139036,0.831640
207.838057,68.273231,0.300629
-3.040738,134.390341,0.696452
-92.623083,20.864441,0.312577
146.714172,-1.417355,0.380932
34.120827,-47.945343,0.119086
24.585627,88.104032,0.960618
-126.345248,-41.357918,0.770354
19.935937,15.010875,0.713104
-2.359253,158.016078,0.871733
-163.188279,-110.069352,0.842921
136.770718,305.729009,0.272384
-92.973643,-34.960535,0.044748
40.216271,196.342128,0.466177
-53.640668,-23.680540,0.700651
225.186195,-111.651048,0.416828
103.222042,-103.222390,0.045966
-90.668460,-123.277642,0.005463
126.615387,52.546061,0.375733
-16.007780,-54.334459,0.507778
-77.384369,-98.293873,0.882333
-93.651561,-20.834248,0.547660
-52.394653,-53.893069,0.926377
2.236178,147.453867,0.495447
6.152843,-50.366076,0.293473
45.400223,23.608440,0.716076
-106.953902,31.581763,0.565129
-34.047144,264.477894,0.927455
32.660359,-61.180006,0.798984
-181.536924,150.929047,0.788710
-93.311294,140.318399,0.254086
-42.887311,25.321138,0.267848
-108.135703,40.321317,0.834480
-15.524298,-15.633967,0.345329
-48.625801,-127.909918,0.929517
-55.373952,64.769350,0.919310
52.431312,-21.975835,0.923071
-19.469845,-134.975839,0.561232
22.942917,-207.052374,0.308083
-52.848920,4.865190,0.186223
94.552580,143.122975,0.965856
116.499924,4.872201,0.602184
128.120177,-22.793309,0.814103
-8.671628,-54.425136,0.623073
169.963144,-148.155325,0.815272
-66.248783,165.997480,0.906343
-175.419179,65.645700,0.650993
17.644997,-75.847946,0.429222
51.384622,-59.602182,0.214359
13.454991,-42.813871,0.303761
-11.302019,140.095884,0.179451
205.660765,-23.442241,0.612317
15.362284,-175.830430,0.414992
31.300105,4.733788,0.321409
-46.927140,156.830928,0.242034
-95.937296,150.185718,0.927671
-202.338505,-134.277469,0.765359
-23.804738,-26.455880,0.845378
-77.949862,107.549551,0.781131
-83.165323,-238.122609,0.448058
-192.527853,-43.319157,0.374471
75.046511,-22.830723,0.017265
-116.920015,14.501781,0.620335
28.207224,174.481357,0.776433
102.877160,-144.827826,0.844526
-95.168836,-23.673216,0.724252
71.254297,-110.491483,0.890368
-152.192539,63.049863,0.621999
-11.356247,144.809936,0.926866
-37.484154,34.614264,0.780491
32.286349,162.702240,0.789055
-68.276374,223.107759,0.033814
-1.129869,19.789354,0.118568
-16.143383,-178.932807,0.447009
95.982996,66.568714,0.073191
56.870656,112.111969,0.614336
11.582959,-33.993893,0.462620
-263.541716,49.473172,0.758907
-47.183635,-50.992186,0.336238
137.171535,-82.576267,0.880780
-32.695290,135.725384,0.478253
77.148922,-15.865882,0.062183
-34.509886,-16.945113,0.733204
-76.771921,84.818176,0.276667
117.674405,76.956417,0.127617
67.558790,-11.831445,0.793356
35.502497,3.389644,0.318583
-141.407556,22.325259,0.110168
-94.495424,-1.573821,0.383422
-293.409174,79.534283,0.695213
-59.181633,-15.078629,0.649557
15.710792,26.251675,0.747779
-130.405193,-144.203035,0.370795
-104.005062,72.111147,0.463564
87.831414,258.969828,0.309156
42.184999,147.119030,0.736980
-78.554100,120.154005,0.653147
9.757482,7.853144,0.038368
-45.884711,-222.638569,0.959973
29.058150,-149.992470,0.505269
-110.059830,-110.136377,0.579239
118.108698,-25.942721,0.388519
168.591631,101.311600,0.416669
31.754200,-176.364477,0.744241
42.132720,-158.838935,0.318939
-101.121883,-251.963626,0.527604
-101.676279,41.311005,0.632942
-47.713773,-113.451892,0.144685
102.028620,-9.077575,0.011223
-5.999873,-76.080041,0.381371
-87.719003,-108.146278,0.632929
-101.268630,-172.218251,0.279834
62.835923,95.240716,0.195299
-51.270513,15.877067,0.128185
-157.069451,-2.882077,0.266733
-119.667233,22.485260,0.697491
-35.407670,-109.586985,0.596618
-21.904208,140.155325,0.470962
169.655039,-48.553544,0.210449
-107.991093,151.931766,0.927548
-125.060901,-127.125686,0.177498
-22.413303,75.873520,0.004839
109.040253,30.032958,0.086335
-129.267292,11.176952,0.750874
54.916011,84.723764,0.498348
-12.880376,25.658615,0.130127
166.883689,155.210709,0.576549
-17.994243,-9.833327,0.451491
-94.178740,-171.742594,0.659245
39.903815,34.061919,0.373044
-33.972865,-103.023041,0.825098
-18.938322,-17.763434,0.057193
-6.803650,95.836500,0.788348
87.651141,17.143951,0.460855
-93.181409,-34.745773,0.826725
-97.589971,61.208252,0.233636
41.280633,129.601833,0.381602
121.540043,-141.484610,0.287164
-30.392018,181.613382,0.263591
-126.971029,-176.460328,0.859700
-11.354870,84.019660,0.218726
24.596181,-172.687535,0.828323
-112.035479,51.520861,0.458270
184.460274,139.411342,0.044874
94.052913,39.843187,0.931163
-161.735487,150.831601,0.148072
-32.631226,-76.724146,0.917751
-75.954419,51.842324,0.238847
-56.930372,64.845577,0.095509
-52.201673,86.271458,0.626320
-59.524759,-102.204026,0.050615
97.064339,184.585802,0.629863
103.594083,13.547647,0.303010
59.756166,28.134730,0.653156
-103.441405,-28.676517,0.033330
-162.752119,-222.012452,0.000201
69.433524,5.522768,0.364185
20.107630,-47.447854,0.562668
67.906167,58.623881,0.233886
88.825020,-61.298357,0.263472
-130.717066,92.811403,0.227000
-44.946903,0.770119,0.455629
-123.780538,9.715850,0.789041
86.137216,-109.424389,0.669272
-54.147889,-17.386343,0.834113
177.158365,-102.298128,0.715366
-149.755001,21.006809,0.419059
15.512429,74.857265,0.413684
66.058974,-88.256390,0.522123
109.844432,-52.189052,0.977422
-36.520261,71.192682,0.964780
-52.550921,124.873392,0.584885
96.599663,-77.196502,0.581302
-181.180978,-119.331241,0.478096
-64.599135,221.742052,0.033531
-171.179047,4.363584,0.325114
-9.700462,-123.942332,0.667242
-67.096990,39.281930,0.830041
38.569497,135.752771,0.329761
308.761917,-69.477764,0.580414
-50.701697,34.594444,0.405811
106.480635,9.582523,0.699936
160.293524,-219.708121,0.690763
6.252934,174.153015,0.623328
95.988480,32.692992,0.777577
88.843505,-107.466652,0.458210
7.165620,166.077805,0.619583
-154.273962,-63.672609,0.765864
11.918542,-6.983627,0.754789
-5.122036,127.542494,0.329843
-43.894563,102.577338,0.501714
89.984932,-105.686562,0.540048
-63.750624,-75.632441,0.800691
24.734787,14.264884,0.234515
190.891878,133.265789,0.622079
32.471217,87.427290,0.975280
-129.501980,-136.511723,0.599148
-11.956664,-11.194884,0.768118
-19.502403,-190.932711,0.100189
-115.388511,58.760448,0.139243
69.717939,66.840170,0.720487
103.156293,-21.350023,0.044101
-61.861108,-220.202492,0.284069
16.053957,39.697918,0.019194
94.311063,108.529050,0.797229
-99.623066,34.345449,0.632808
-32.117675,73.581202,0.488333
-4.745754,-69.583135,0.478261
29.574295,-85.229734,0.592237
-36.326391,132.879976,0.066320
125.913201,-24.497228,0.411435
1.423069,44.269496,0.485758
-54.528349,27.999440,0.382355
11.286779,154.472126,0.334390
180.152635,-169.828417,0.368219
-38.056922,-71.482366,0.109065
148.395495,27.379497,0.298548
-30.621151,37.092130,0.556516
-67.671750,-94.018029,0.146526
128.751690,30.846941,0.264111
4.789986,-38.498194,0.350810
49.943718,80.751575,0.997581
23.656017,-153.791786,0.832431
-236.362838,103.295317,0.373358
-165.356010,135.212792,0.759266
-63.890683,-29.501285,0.307294
-47.394193,-3.290106,0.184297
107.636462,14.121973,0.946865
-12.594460,22.985613,0.864188
74.730623,-67.680175,0.973198
95.082393,-157.241167,0.394607
10.885175,-21.668078,0.129529
-42.841152,31.536706,0.013709
50.180268,32.165783,0.101243
-43.771620,90.738279,0.474846
-92.437669,-172.464675,0.835914
75.641142,-77.215604,0.737990
70.937349,118.999398,0.872645
-55.237424,135.879673,0.704367
104.841930,17.192823,0.492081
-67.933502,193.992671,0.359392
4.941995,51.437335,0.232018
-48.389159,-98.466286,0.021850
48.872326,154.654656,0.715405
-206.034968,-58.999232,0.602966
74.086555,-12.149581,0.154861
-198.764649,71.955078,0.709814
101.812893,105.308801,0.305575
-12.244469,-193.026573,0.532351
-52.870097,-43.317117,0.995111
-42.196720,-44.779698,0.155265
-65.292095,44.082211,0.209374
46.211147,-42.979740,0.556417
-38.714584,-94.156442,0.219997
1.874479,-21.837278,0.617365
-29.069148,106.177933,0.019458
-81.726266,-279.988833,0.279480
7.234495,42.689860,0.058363
-157.511152,-129.344754,0.189499
16.331593,-0.016721,0.207398
-108.506501,-167.933101,0.430419
-117.127860,44.420271,0.427499
21.076612,89.074721,0.317060
-12.986488,73.034579,0.531463
71.767395,-74.299216,0.888540
116.392794,-24.362461,0.680113
199.408619,28.518440,0.135371
56.054182,6.213335,0.724825
174.063405,-156.100130,0.767332
-78.223466,-114.577433,0.449832
3.009745,-110.847827,0.530319
-95.891668,-7.292061,0.839753
-14.937406,-1.292916,0.554670
-41.111162,-79.674803,0.688725
-74.730795,-103.412270,0.313270
73.815897,-22.029098,0.855871
-76.514260,71.807805,0.167055
45.539139,151.004005,0.817244
14.741440,102.275448,0.987471
-16.421855,201.391829,0.500468
106.753207,-0.929320,0.065063
92.789014,-121.338493,0.910709
197.353976,74.876953,0.435981
88.767993,77.802323,0.439936
-212.416363,41.741731,0.671026
167.544629,-3.337904,0.008205
50.373343,-91.201883,0.776369
-11.475852,58.606762,0.416931
28.112677,182.748446,0.478539
-59.640011,107.532865,0.518907
-96.985867,22.091734,0.384005
-183.300908,64.595394,0.716278
102.415061,-106.293498,0.714242
100.360747,-54.501671,0.445437
-41.698741,87.920046,0.960699
-103.950750,195.404891,0.614225
-147.522822,-16.452029,0.243498
-22.293096,71.825050,0.231752
-36.102171,-4.980347,0.219582
196.005474,-33.808166,0.424526
13.059307,23.523684,0.029625
45.859985,179.628076,0.215484
67.340569,-8.391000,0.945789
48.382373,-33.574456,0.825987
106.595516,-187.265109,0.776675
79.038489,-159.435223,0.220156
1.013269,-32.205163,0.406797
-17.919605,137.589257,0.264855
-48.891805,-71.253672,0.190853
-79.142100,28.597604,0.778942
107.587842,25.986348,0.951421
-15.768090,66.127108,0.093373
39.709636,81.592755,0.068423
-114.717154,-18.984379,0.686712
86.314600,-93.108172,0.544914
206.956479,107.278969,0.416934
36.502873,-37.226359,0.876921
-32.576703,-165.202013,0.654962
28.375807,76.488834,0.312916
112.894221,-87.965346,0.792084
-48.088918,-45.509077,0.326634
30.218097,-14.610421,0.400070
32.400603,-53.205520,0.770393
-64.157189,-60.404507,0.203923
133.900137,70.501271,0.033942
3.076919,144.535795,0.811362
-277.083917,-14.393979,0.786936
49.296771,-7.856496,0.199641
190.596611,-52.714908,0.886106
-155.253759,-43.723176,0.355716
76.874462,-16.577237,0.455007
-115.809694,-100.438610,0.376120
-100.829618,-93.771887,0.478639
-110.106616,-126.747396,0.327884
60.557385,8.668668,0.178444
-125.773383,105.233131,0.291701
-7.964869,-64.127061,0.975610
-140.940343,26.135262,0.256115
-21.872246,-7.796093,0.616222
89.250617,5.108049,0.851137
178.794805,62.162587,0.752637
52.795861,208.098004,0.187513
112.500268,-157.164240,0.064074
-53.943994,-54.289136,0.952568
-95.043615,70.172382,0.572820
51.674759,-53.498591,0.364075
-23.055714,-10.393907,0.014516
-95.775049,92.679480,0.354661
16.999796,79.599055,0.578564
27.332140,175.902093,0.778869
-62.347272,-81.015855,0.097782
55.612135,-61.961705,0.827731
117.590487,-57.898267,0.901581
99.212987,106.325238,0.379440
54.286595,99.708643,0.308871
16.845555,-33.171782,0.073192
-31.721899,-25.906085,0.743993
-54.930063,38.346541,0.362105
-59.839485,28.244698,0.728212
-30.575234,59.358729,0.525409
-50.096961,5.420411,0.176341
-30.209603,34.619654,0.370292
100.663751,13.346085,0.504117
16.808699,249.715765,0.398903
148.624618,-6.889141,0.627935
-44.079871,17.194483,0.032906
-146.195921,86.597230,0.783963
-27.492015,-137.614592,0.659271
13.928169,-37.652793,0.607479
-37.139475,-193.140554,0.155905
15.723203,56.085427,0.680150
-13.204219,-51.673365,0.785942
-6.670033,221.880127,0.258028
-42.549165,90.899134,0.966686
64.833118,130.852244,0.193195
102.827076,64.886943,0.800766
-116.777298,-73.298502,0.200470
5.549042,33.545087,0.822669
103.004926,-12.677771,0.877211
-107.107102,-166.292360,0.724845
126.344882,62.057534,0.465868
79.702631,193.386670,0.304815
-90.942541,-5.333504,0.263270
124.948695,-11.089517,0.994347
74.711532,-18.404752,0.526205
-11.965503,26.014397,0.622337
16.637948,-128.003263,0.250021
-312.416342,-43.787179,0.871654
-14.981850,-59.440768,0.791087
13.128337,-88.601391,0.895005
-151.332874,-9.815775,0.098365
-87.831220,-47.736213,0.346288
-46.568966,-83.989983,0.288970
-21.703245,51.199462,0.045732
-59.171197,25.519540,0.207147
-35.891675,55.226318,0.009547
98.498749,38.221964,0.863132
-61.676718,48.301957,0.376818
-5.308891,-14.634416,0.847471
39.839313,-96.118759,0.320716
16.176290,46.548067,0.968478
21.805513,86.243272,0.420962
-162.411841,33.183375,0.610943
131.803501,70.283966,0.925680
132.370675,-14.998630,0.008179
-79.885937,119.706236,0.927161
-84.347437,169.284100,0.389720
-90.261624,-71.195686,0.050803
-18.822439,49.926207,0.474502
3.583641,-44.291580,0.862396
-25.561141,200.367708,0.385863
-58.939957,-119.330937,0.550606
80.054712,-27.296708,0.566229
20.272815,5.228940,0.655851
62.095444,57.265405,0.246689
105.528951,60.278735,0.947596
87.960689,11.922043,0.579736
33.242053,31.467296,0.615862
-18.738582,78.226663,0.647099
52.014099,14.598541,0.452423
-89.043981,62.252597,0.112445
-11.507686,-84.394510,0.316881
1.432229,-167.445951,0.526979
-15.970590,151.107800,0.308357
35.312321,44.120728,0.933769
-72.095560,49.627004,0.016334
93.025542,-89.687695,0.996093
52.900015,207.271833,0.426280
235.390660,-52.055111,0.416098
29.232483,-143.270118,0.043089
27.983555,45.112912,0.339935
-111.616169,-48.587142,0.338026
148.256760,84.913008,0.757808
-276.664888,9.408262,0.185418
29.502311,70.413096,0.595602
18.728302,-0.017586,0.015710
68.555219,-68.835438,0.236103
12.185011,18.100537,0.618363
183.937598,-22.978153,0.411156
-11.776359,-159.590840,0.333475
-22.448678,-9.066642,0.528384
100.580444,-105.267158,0.650658
24.322154,0.918184,0.341830
92.414543,-159.920608,0.736738
228.498560,118.739394,0.804813
105.925213,-168.042289,0.936129
0.941220,-106.132577,0.139642
49.891191,-144.990802,0.325472
-236.764339,-79.451710,0.253520
80.027543,16.591161,0.226113
-117.841239,-66.717663,0.126454
73.023390,-165.197306,0.374745
4.468879,284.898064,0.177976
-96.763767,118.053719,0.067282
57.926745,4.592916,0.749327
28.354821,-112.151436,0.680698
-110.075656,24.895857,0.546597
14.034701,-7.860253,0.166389
34.313818,-10.993059,0.924979
-5.536036,40.679969,0.848436
85.392374,87.836790,0.777610
-15.788662,-58.396337,0.609828
28.588992,-1.778644,0.920517
92.839688,42.225854,0.902259
-35.572080,-6.148172,0.364112
-26.058642,-134.870360,0.721180
148.213441,-104.053999,0.958667
11.987670,94.949712,0.693748
-127.773104,222.748833,0.197537
45.812446,-43.345354,0.017953
74.192479,160.823786,0.210388
-7.292792,-241.176806,0.128850
-78.887829,-100.387360,0.708904
54.677472,143.341671,0.337885
120.200842,-155.000353,0.806638
129.488536,39.810860,0.874864
57.722726,56.541899,0.011964
-156.112208,111.080939,0.963367
8.105384,-56.401529,0.192514
117.756968,23.375182,0.343418
-31.129094,-29.614402,0.364252
-12.837279,-111.119755,0.986364
-33.351531,27.206274,0.658251
-88.224894,69.033189,0.950913
-64.176929,-118.988787,0.769860
10.481085,33.816136,0.967975
-59.434279,-81.319464,0.774232
56.829701,-98.906326,0.179241
89.853400,-18.572704,0.869458
-58.570690,45.332677,0.831414
46.832932,-173.758084,0.081769
137.602309,-133.346303,0.753068
3.032565,58.828699,0.020927
-38.070689,-180.583739,0.180435
87.761292,-172.524755,0.414331
-10.470704,-58.694952,0.042099
153.183402,38.695358,0.676425
27.867838,120.584768,0.483054
-225.413709,9.085654,0.757400
32.267813,22.646744,0.194290
103.752138,171.095851,0.495360
-5.828575,-94.823303,0.084509
-45.339853,-16.287851,0.991009
-2.901522,-91.805161,0.226199
-37.312465,-75.472439,0.627250
-14.839734,60.487674,0.336595
-105.281149,-124.413033,0.594625
35.962492,-105.526079,0.679974
64.418982,-103.240033,0.393078
-83.932278,-116.630404,0.242947
-9.569178,220.208693,0.650119
-194.678717,130.156825,0.406652
48.532996,-160.982824,0.308462
-7.341901,-156.129851,0.422241
-106.361622,70.519961,0.584265
-133.210687,9.759460,0.493584
127.093924,7.220644,0.025703
-51.259065,-108.072919,0.539511
137.234307,54.818532,0.414764
-5.111272,22.761906,0.903345
276.421896,91.325975,0.320907
-57.215839,-136.985616,0.855135
27.021233,43.874786,0.039548
-170.395527,132.406314,0.798040
28.092440,92.303136,0.208147
207.064785,-48.315340,0.877356
