x,y,z
-0.065269,-180.222590,0.443734
132.103451,-10.810149,0.818115
183.041163,-5.479839,0.676645
179.502001,42.007412,0.569414
280.225552,-116.928883,0.402849
-170.408946,143.974713,0.844666
-130.202228,-66.231909,0.127781
80.648529,-92.462792,0.286310
34.632738,-85.295562,0.101421
125.021678,87.681953,0.538731
189.327028,247.319261,0.200384
-6.590147,-117.251109,0.334216
52.485524,-74.815952,0.665190
-58.406893,28.011003,0.425548
91.889815,16.155974,0.857912
-65.251307,158.810667,0.358737
71.787277,1.192590,0.113005
-112.871826,17.041443,0.372649
10.282186,-41.493085,0.080355
-119.208705,-216.488724,0.559690
-58.695067,-136.817037,0.223578
122.601697,4.814878,0.516606
-162.820184,-76.389089,0.092827
32.301668,29.677038,0.923693
155.239838,3.970462,0.276709
113.040561,-101.010781,0.230450
-156.609218,69.892611,0.653054
-71.220525,-134.413650,0.227891
-206.073976,-80.289625,0.889532
-34.405061,228.140862,0.789994
-50.371169,39.421836,0.808304
179.146559,-0.436475,0.016555
-4.388987,-230.334055,0.133148
12.253044,123.271921,0.514285
135.800618,-39.566067,0.376436
-27.975617,14.561260,0.379028
64.416271,45.576518,0.270304
-11.753499,-121.229624,0.254014
98.013374,40.040696,0.825873
-34.529462,-90.574504,0.832527
-29.260803,-34.973677,0.328032
-7.775687,-2.654748,0.789167
94.323966,-99.466816,0.408654
-216.968680,41.243791,0.339698
220.976827,-65.370246,0.383794
24.733168,82.612061,0.459663
-79.518330,-61.270430,0.359836
-65.469055,82.791268,0.471964
-34.426326,-55.005262,0.194526
84.986356,-64.467455,0.737399
36.120635,125.577229,0.406193
118.484792,219.414387,0.845743
-155.299525,-133.677211,0.278689
105.183685,-223.614380,0.070508
56.083443,-101.479937,0.201730
-28.874598,-17.497834,0.913194
40.512815,76.703674,0.038065
45.720373,-49.447162,0.921961
70.325621,-26.295439,0.268020
-122.269301,-44.953485,0.227523
82.148659,-200.703414,0.540561
103.078555,48.437854,0.968364
10.366557,-130.480023,0.580290
115.174001,-102.663216,0.329345
191.112211,-30.733513,0.652707
-23.493526,-145.234111,0.070235
-76.067766,-67.415234,0.170001
-67.707583,97.327172,0.059640
-97.726600,8.756984,0.532266
-61.171971,73.166770,0.163679
-105.325918,-84.841114,0.334274
50.797550,38.103481,0.590678
-66.186271,-57.380610,0.782033
-88.107017,25.594472,0.131457
-88.546591,91.647745,0.414189
63.713806,-24.796328,0.382205
137.751467,-159.198696,0.461830
-277.657118,70.132466,0.111544
-124.150024,-26.160325,0.820701
-145.214385,-9.980220,0.334916
87.759158,-72.965995,0.733058
201.359327,-78.293176,0.463191
190.399094,-64.916171,0.576191
-29.548714,-104.119110,0.021977
112.149015,-50.970398,0.915936
117.878094,6.575331,0.718622
52.129574,26.303657,0.925487
-144.893285,-90.264212,0.754562
1.098644,118.724075,0.645424
-29.306860,59.925938,0.799850
-58.797320,69.544134,0.159997
126.698543,-38.751155,0.879393
51.040637,-94.073399,0.532993
-42.589086,-39.118656,0.906876
-26.236970,166.301154,0.990514
-59.640184,-48.540536,0.474882
-39.807549,-7.743533,0.294740
13.840634,-67.095306,0.938979
-36.375763,3.105848,0.692205
-67.024009,-132.987014,0.170904
-97.016672,65.838309,0.752013
86.795294,-15.088018,0.327007
61.178655,243.964494,0.489988
-39.300188,58.352069,0.821497
45.857882,-77.160124,0.700569
7.542913,87.353556,0.799138
-80.801079,-17.443192,0.803181
-21.370105,-48.016675,0.141388
4.758623,-26.407453,0.804941
-115.874565,41.218074,0.442250
6.376032,-42.089442,0.781861
65.226113,58.856560,0.028452
189.055943,-127.819811,0.741628
-58.985089,171.531173,0.669925
136.943411,-33.835830,0.147205
180.371442,40.519855,0.446690
72.998167,-47.682480,0.337214
112.201287,-227.735899,0.372161
73.980787,-55.324066,0.609990
7.937659,-67.352143,0.902907
-102.083436,-120.982974,0.991149
10.993249,55.697804,0.268990
-10.335781,40.437151,0.576715
-51.766248,274.338140,0.616903
-46.097796,-23.041445,0.323786
-257.484431,-24.405869,0.127718
41.586408,54.351327,0.825082
213.802810,-115.174540,0.004283
138.614177,-13.816699,0.774928
-106.274785,15.244636,0.235872
28.600176,-102.669153,0.251049
-67.737177,-84.522988,0.429208
21.508240,-40.724539,0.765283
-123.010706,89.640011,0.646655
-8.248866,-31.933079,0.349369
-215.261778,190.903138,0.301717
186.965026,-79.355277,0.676040
86.411483,-155.621596,0.996391
-50.268416,46.151508,0.342982
-3.663848,16.377255,0.706542
-1.179922,-34.922159,0.495548
-24.949195,-10.633442,0.551822
41.235635,-51.026763,0.497285
-98.831439,-116.627033,0.045983
-84.801282,131.562458,0.852163
77.681701,-43.737673,0.281182
-195.720513,51.497796,0.164102
-56.006835,89.944005,0.150572
15.752767,64.656157,0.747572
-5.442248,-15.720791,0.749822
-44.480432,90.102309,0.810160
-65.633145,86.320299,0.688919
-87.761382,46.910843,0.949949
-54.608924,33.926712,0.484527
-82.708181,36.811796,0.714359
-127.029095,-143.351301,0.577812
-105.649765,-5.201061,0.308192
-140.820825,103.598267,0.032227
-37.656803,-108.186139,0.412131
-17.645637,-103.223157,0.496721
-10.910728,6.849555,0.214548
-143.744469,3.927635,0.962434
-110.771187,60.297263,0.264333
53.135357,44.849962,0.800658
3.160844,-35.225008,0.513020
115.293094,157.270285,0.140909
-126.359978,-64.781833,0.422073
-77.802321,-36.709945,0.656711
126.913240,-94.171566,0.816950
-183.132974,-98.666224,0.573462
-55.119512,-42.238716,0.746367
-87.735049,47.659909,0.808902
21.281366,272.348456,0.188307
-53.735380,-97.111179,0.273943
-73.652845,-40.474836,0.148859
-44.583928,-28.756551,0.252538
-65.617895,136.743704,0.609570
-92.931966,89.398836,0.769823
141.932151,10.160056,0.632345
68.334841,84.142384,0.712478
26.931976,-49.350245,0.266630
-203.617237,-35.864547,0.222585
340.544251,-37.363553,0.565214
-63.952146,-21.737725,0.412405
7.514339,132.780393,0.848095
-171.156519,-15.550282,0.934754
47.656140,75.654376,0.425055
38.304674,-103.809507,0.624935
-55.852062,33.355291,0.555098
-140.278682,-193.638107,0.420919
83.760576,-194.938244,0.801556
133.429953,9.997584,0.870106
34.150761,36.776870,0.713108
11.349060,49.881529,0.554417
66.891857,-151.713556,0.587140
134.555065,-206.619090,0.703476
61.749814,141.614793,0.162550
-34.268893,-80.568958,0.444450
90.486521,39.286744,0.442118
35.340747,-1.637200,0.326235
-120.082017,53.378343,0.624431
-135.969130,12.017966,0.838503
-21.567637,33.941544,0.811069
-99.081537,33.430972,0.297257
-124.797616,218.421473,0.856648
71.950955,-28.357090,0.596825
261.599619,-42.405572,0.137066
-227.411275,-42.932822,0.375309
-35.791574,-13.718755,0.111489
22.267109,-29.673627,0.440503
-95.786411,-65.700418,0.008088
-142.207089,69.317754,0.248638
-103.820277,-89.235972,0.082917
-4.327788,-200.514618,0.034957
117.005216,69.646598,0.384697
228.338510,122.893791,0.807608
-101.580614,-47.962836,0.253072
-3.940887,-45.806934,0.266603
-25.110063,-32.211119,0.389688
174.679914,44.304396,0.690117
30.730748,-203.084076,0.476412
-94.475899,102.924339,0.893513
-0.069268,-29.162175,0.563071
74.436795,60.216891,0.431174
43.290117,-58.988184,0.863681
76.729123,102.351075,0.043962
29.366510,12.737285,0.845325
191.096017,-47.192453,0.372152
-12.483868,-8.406329,0.076957
-80.829215,74.455263,0.924312
-41.833574,-40.019320,0.957409
-86.317751,3.782354,0.410860
233.997192,8.047659,0.534012
160.911994,-151.183313,0.400950
217.511955,-237.012792,0.699881
114.926251,-55.689651,0.062133
118.379560,-65.890834,0.825879
40.831824,158.622374,0.132873
106.731105,-101.192462,0.632430
6.716485,54.924894,0.992375
-32.336496,50.603660,0.688534
44.909117,-115.219960,0.349238
-146.193074,16.879782,0.176443
-107.412868,-5.559769,0.468184
122.785448,144.742736,0.146171
-24.756977,78.686402,0.378831
-19.609502,-38.068899,0.026109
95.787014,57.828641,0.493314
-52.072394,-91.733989,0.765173
-80.473652,118.684206,0.588678
45.048668,-37.513824,0.134459
-50.576698,-77.111680,0.951426
-172.947195,42.948278,0.253755
222.563610,-23.265909,0.875453
37.667811,-14.608459,0.976581
138.299148,-88.581660,0.455169
-135.197007,-48.899043,0.959116
-120.544756,112.175469,0.724501
-81.216055,-16.201832,0.205320
82.768078,-131.762780,0.306477
-65.243011,-118.556556,0.018492
-107.166527,-54.511101,0.465492
-74.313593,-40.364563,0.968525
-1.082737,30.887723,0.446996
-150.655566,-60.358677,0.404803
-3.403450,127.425669,0.797123
70.488434,-2.835908,0.645121
-8.803840,25.722589,0.271037
87.803408,54.697461,0.561587
-27.879916,-15.344312,0.689825
43.718247,30.811521,0.520240
-46.765523,89.841673,0.996075
46.995560,-33.906308,0.097556
227.572409,-160.831751,0.280156
-222.986122,-102.870098,0.923109
30.407727,-130.735203,0.633886
153.031389,-70.940130,0.602719
-11.441872,67.173078,0.384234
121.166537,-56.729533,0.886302
-84.292812,-89.706925,0.272667
-178.720622,-115.574081,0.307493
-15.451096,-45.997852,0.247087
70.030035,160.282029,0.886622
38.532610,48.595859,0.031721
73.212407,0.257494,0.792027
-45.839993,-267.686302,0.673288
-118.696101,-153.682420,0.570848
120.888205,-23.730532,0.678593
-63.648179,-157.757607,0.765352
31.593723,55.699432,0.457821
-2.461001,180.505879,0.444094
161.946716,28.826423,0.222024
180.064950,2.759884,0.865413
-69.253629,147.570718,0.206327
44.259603,-34.102353,0.766130
-134.941944,48.511403,0.974673
18.694522,-96.704102,0.257566
-106.912473,-27.955217,0.556016
-37.352177,-170.899192,0.585305
28.248396,120.016820,0.286475
92.566791,35.538523,0.821838
16.802201,-64.759277,0.824278
0.328358,143.236309,0.387142
87.632277,44.451156,0.445985
118.676084,3.711891,0.559920
-17.307135,-176.019157,0.831512
-128.896349,5.292966,0.497211
-23.134684,-129.064877,0.912794
-56.173508,156.877250,0.046777
-27.168834,-156.336709,0.095439
-30.837993,-85.474614,0.412464
-18.620174,-46.725638,0.612909
112.174658,-107.246453,0.784909
-33.282226,69.665159,0.040639
-50.467779,48.849075,0.294173
161.921280,-27.661750,0.004464
-234.764217,-5.338585,0.459021
-204.996461,84.381312,0.471798
-52.676560,-72.874682,0.965976
65.145093,-67.849864,0.540212
-14.457900,-52.077635,0.676223
136.034589,-8.704602,0.424538
-150.850932,-57.832429,0.918116
-24.870241,-84.750351,0.129526
1.700687,-58.950767,0.975711
9.467737,-28.398169,0.936712
-138.488341,-12.306326,0.466683
-225.177000,-129.937942,0.344434
7.012607,-73.715751,0.297525
-97.215592,-19.244964,0.227805
9.835591,-65.724629,0.171367
98.875376,5.177679,0.523420
134.756002,-21.929635,0.446296
-70.733528,-34.437732,0.220301
265.983753,31.472910,0.693400
-80.324390,23.011558,0.946251
121.614331,-4.460482,0.729009
79.352415,-92.626925,0.715169
-66.227052,-46.668777,0.446908
3.697344,7.259669,0.587899
-255.662498,-95.389154,0.632124
-113.581975,-49.601277,0.497308
6.761582,-163.782888,0.577048
-199.491360,22.323850,0.674036
52.164484,-219.664841,0.938646
32.613332,14.446117,0.271654
15.410267,-127.229896,0.053003
-23.898423,-168.473264,0.488936
127.835108,-27.159965,0.404898
36.903342,-22.890630,0.646603
244.147047,-229.374829,0.948688
197.485941,-100.168129,0.043600
40.304988,24.971157,0.331183
-96.578709,-188.973760,0.052915
-55.186278,-14.143770,0.658655
-166.944977,-15.874327,0.003477
5.135398,116.380086,0.701465
-74.636152,42.101727,0.511075
-55.721241,-143.518098,0.374479
-79.474265,-28.179373,0.071136
52.628474,53.574485,0.334195
-180.919860,191.462265,0.905843
71.079583,-64.356012,0.913163
163.261950,-37.130393,0.040359
163.827299,186.150005,0.577099
-65.848228,-159.871461,0.868087
91.586856,-96.722696,0.967656
180.056347,-31.530113,0.585700
-47.433148,49.784988,0.069290
7.704021,48.404181,0.435599
32.054841,134.453192,0.375475
155.954902,32.789101,0.662138
-67.488235,182.503076,0.984770
-14.334034,-65.387302,0.262000
109.793524,58.065468,0.175675
108.605008,-7.764152,0.749947
155.993712,133.335286,0.062689
-70.761875,-26.889260,0.836081
120.554171,-74.755896,0.531416
40.253177,118.087624,0.764874
-16.723153,62.827242,0.430628
-60.027247,31.437999,0.957521
85.704412,44.732500,0.693980
92.464252,-4.571768,0.440667
22.376107,216.726778,0.047888
56.517501,-82.226416,0.085997
123.974295,-3.849369,0.613275
263.707447,2.623212,0.416719
72.456786,-97.885515,0.524172
-64.234506,86.360976,0.294006
210.314763,61.879649,0.902873
10.185338,106.351693,0.078255
160.637642,-25.373940,0.968869
-92.418423,81.912065,0.130238
28.765449,-22.466997,0.861936
-137.157550,-118.678222,0.742217
-6.969269,-56.043066,0.716186
107.253851,61.079087,0.591428
208.282447,-58.666281,0.619657
23.878109,29.118543,0.041737
102.201570,276.618685,0.676530
64.993859,6.652175,0.634859
-130.534372,44.878640,0.108901
4.034467,12.786337,0.737948
-27.171518,25.537780,0.091839
13.773683,-22.292551,0.724759
95.356177,-182.249372,0.006866
204.863573,-55.847238,0.647932
93.813143,-43.946787,0.198464
-1.790522,-61.624276,0.607464
-156.341604,158.910664,0.121806
35.816600,-57.188398,0.005708
54.205805,11.834761,0.400460
6.317889,1.227928,0.099811
98.303165,-96.731258,0.549560
-20.300941,168.859997,0.647032
-60.546258,104.865878,0.330351
71.738904,-66.354043,0.071445
35.465947,-100.468249,0.000228
-25.801908,-48.164988,0.475325
17.166046,-114.938031,0.749245
-130.830247,-164.814194,0.570452
33.650162,-31.052482,0.143051
-85.291998,129.192140,0.903712
52.136849,112.671589,0.604006
22.693891,88.581370,0.642585
3.533435,-71.157311,0.980120
164.117085,91.837314,0.260929
-74.253829,134.207914,0.817749
-38.044381,-103.374281,0.573992
135.295158,-96.553653,0.745255
64.074916,24.560838,0.494123
17.509753,37.441748,0.963587
77.221307,-224.026504,0.389863
-77.080187,-245.125540,0.407708
-8.061154,169.956429,0.742068
72.813305,-88.213833,0.371422
-59.570167,5.014895,0.561125
-154.736639,-83.353370,0.533814
-74.628332,-75.888699,0.322077
-90.872388,-44.722485,0.078101
-67.629693,5.441904,0.120504
-13.964183,-14.558652,0.513717
2.977407,121.324984,0.738981
145.817365,-6.018616,0.390458
51.303326,-39.463606,0.462037
-113.418952,56.153389,0.073813
96.837010,17.143596,0.241828
14.949916,-32.827343,0.750072
250.110504,110.576928,0.417368
-90.300663,14.012468,0.714530
142.692501,49.170307,0.298590
-36.750970,-0.133300,0.080140
-69.588761,-40.508245,0.035573
41.177585,-50.287282,0.127491
51.920685,-94.363137,0.766236
48.272687,-118.436983,0.291622
-47.623230,48.808684,0.275586
-37.087831,-49.059203,0.450491
25.383402,79.312977,0.959075
10.136906,-2.727851,0.345854
250.114532,-42.352389,0.764606
23.114459,-85.880009,0.426284
13.977520,-18.797123,0.308889
-12.662968,99.024287,0.904902
3.206028,-83.187115,0.198701
91.682149,-12.854719,0.943904
126.788539,13.695932,0.357684
69.723374,-121.396622,0.191981
53.974185,-65.783843,0.288972
49.788366,70.632246,0.104823
-188.501330,14.922843,0.208505
-36.353097,32.485401,0.138851
130.551360,-127.385581,0.169674
-106.619227,113.255310,0.534581
-100.143828,287.978591,0.748496
154.331060,30.643999,0.747704
-263.010281,79.698585,0.516128
28.708964,-91.614743,0.681018
-170.113435,49.807623,0.848446
-67.280973,127.434346,0.955327
-118.281491,-115.852854,0.038714
72.401135,3.109549,0.923722
108.099868,8.550429,0.680082
30.874710,77.808379,0.475556
-70.822124,24.600114,0.797396
54.303428,30.717658,0.712811
-152.011761,47.958116,0.757387
190.261969,110.194846,0.375150
-22.741611,-14.609599,0.211664
66.231394,-6.373364,0.812017
25.218499,61.964416,0.158493
-96.463509,-15.091293,0.304041
117.862056,224.751571,0.597052
31.843596,-31.176308,0.954431
-12.952787,103.624628,0.687910
-23.995394,-9.632201,0.330992
-187.608140,24.188379,0.958179
-146.512357,-1.729404,0.959724
-26.278439,122.110044,0.267971
23.394873,-155.575564,0.584547
-259.311643,-25.547490,0.829245
-19.014320,-179.456595,0.023177
118.334425,-72.649283,0.399170
98.274991,152.825954,0.608021
15.045166,5.881617,0.679705
-196.555160,4.995511,0.045099
88.903384,110.582216,0.216133
-121.529393,136.291333,0.622057
0.277215,40.220047,0.088965
7.469992,16.236450,0.308604
-25.090345,176.331278,0.093599
-81.396984,96.541520,0.839409
136.127060,-181.968354,0.781718
121.573024,-203.807920,0.854494
-15.770524,19.956754,0.872758
-19.613131,-5.494299,0.393357
287.375462,35.610458,0.799528
193.928235,36.875755,0.130718
-3.238785,-82.385853,0.445190
-65.569559,-78.279044,0.734135
-143.948239,-89.836067,0.103500
1.505412,114.611868,0.718733
190.163455,79.328518,0.718956
-109.371494,30.637605,0.094259
53.366407,75.308546,0.155811
-56.389606,-42.192554,0.796086
7.593531,114.170061,0.759592
96.137022,40.781076,0.262987
82.153693,46.682175,0.414574
83.406810,-9.939469,0.393176
57.716980,158.112698,0.982168
-18.900821,-11.646112,0.233313
-137.287092,-72.513249,0.253108
99.216711,55.619282,0.218553
-140.401632,112.059155,0.118230
-22.074126,6.711628,0.569243
68.359415,-98.660058,0.451838
-97.383322,-7.747318,0.133837
2.917395,60.484684,0.967603
-88.008985,-54.958228,0.831541
64.540110,-124.817246,0.666997
35.884707,-55.332863,0.442557
-234.616063,9.412720,0.936406
39.863688,-76.043627,0.598458
-16.819639,42.497116,0.774860
-140.794585,-71.208881,0.418245
-8.386526,-252.261213,0.241336
92.266883,271.736560,0.503523
-38.885564,76.965681,0.543708
-170.981221,37.428926,0.447433
-12.650172,152.793163,0.763804
22.009670,-85.370717,0.566873
92.037793,253.017121,0.314762
56.169102,-25.519685,0.894912
-105.842747,106.313386,0.680037
50.326954,69.266896,0.745414
-105.913788,20.445359,0.578174
-86.579801,-80.341267,0.744660
175.260353,19.893434,0.215732
-88.077473,-101.397710,0.626334
-75.459339,64.415403,0.696967
-202.053049,224.592997,0.002888
-99.516907,110.581499,0.607789
-2.061878,49.385212,0.808270
198.000152,-314.475359,0.062233
33.891758,81.047213,0.514240
90.130831,-75.477512,0.206492
-95.403474,-87.260892,0.458061
-37.316571,-80.449294,0.256418
-83.926690,98.425865,0.841273
-49.894229,-34.015092,0.668348
134.226738,58.901023,0.443826
4.302426,-93.006471,0.919787
98.024301,-89.835374,0.992782
3.463175,4.980732,0.153661
45.737225,-160.020370,0.521543
-53.632392,-66.152567,0.883944
41.417997,94.637187,0.287697
-187.020046,74.695609,0.151074
-106.547723,-51.135698,0.773805
-266.759864,-145.615460,0.165025
112.000041,-141.931643,0.755678
15.380231,-76.765801,0.460061
129.378242,-47.909045,0.650372
147.194886,-174.927799,0.653006
26.858221,-90.797618,0.941947
27.865022,74.742865,0.360663
-111.979661,-99.171041,0.224801
-104.015606,150.578095,0.958659
55.589844,-107.464234,0.842915
141.537739,-59.882916,0.325605
81.308848,12.805054,0.887070
31.470600,-100.511691,0.238319
-50.496838,-150.164506,0.047846
120.465436,-14.234564,0.279174
-112.672593,-35.941119,0.610087
-49.720695,-4.290306,0.280135
-7.907182,185.117793,0.436128
-39.342194,4.320342,0.931366
-144.412558,-60.748704,0.549288
-50.216453,136.929233,0.849357
-49.301046,-67.548910,0.925408
-2.409755,112.150788,0.283403
-168.552176,39.045019,0.024227
-29.216597,-216.563014,0.785214
27.486238,30.333981,0.174901
-56.779421,51.289835,0.390298
6.029448,-111.678703,0.069765
34.721456,99.215174,0.535600
158.453380,-153.275322,0.016283
-226.299281,27.538744,0.578225
178.475185,51.912733,0.091785
188.264393,-69.741958,0.979785
9.360296,-74.134092,0.115579
194.573593,-16.881840,0.719190
-161.938381,52.599940,0.225289
49.469424,52.622297,0.221913
212.810953,-188.830828,0.352571
-73.953050,24.287025,0.930706
-9.500627,34.709823,0.374664
71.952500,144.317742,0.677256
-31.539544,17.060349,0.161846
-198.704498,-175.485227,0.606328
-57.489684,-87.173797,0.341431
58.719439,68.037825,0.588443
4.707067,262.134516,0.476727
44.396067,46.052511,0.275359
111.115970,62.214337,0.434420
25.800730,-68.947266,0.775417
-5.187834,-18.712268,0.761147
113.562209,50.036659,0.413562
-111.936537,37.182144,0.249571
-47.707795,33.467117,0.273257
32.258938,92.887890,0.708003
-55.506843,36.684164,0.617914
-166.363549,-59.393203,0.793223
27.701037,-229.996938,0.790560
28.127243,139.560854,0.749576
-46.511610,-127.716292,0.930485
-103.924448,79.352666,0.906928
-114.088883,-158.059059,0.692840
32.389521,89.305433,0.672694
-93.206454,-82.237961,0.831202
-145.197244,65.684767,0.787015
-27.805088,113.199859,0.664515
246.195292,247.202441,0.146029
91.755609,19.164903,0.246730
-28.715893,4.589404,0.643861
71.150694,-180.858510,0.178117
56.859345,53.129155,0.494492
-121.752148,181.762705,0.626605
-28.488250,102.209963,0.695338
-162.491807,-82.343213,0.956002
-211.606983,121.562535,0.066071
143.220840,11.156872,0.916414
-18.669282,72.648337,0.656367
-86.820303,-0.095451,0.076297
-2.249900,-5.549063,0.373212
-124.258504,121.150303,0.851376
-68.694955,29.822882,0.709117
-134.881322,68.436714,0.422726
0.382029,30.177075,0.048256
154.574043,71.030331,0.121897
-20.595174,-115.175757,0.978204
100.018835,63.441622,0.584987
178.272676,79.013860,0.298846
30.666497,-123.756886,0.388866
58.004380,-213.091143,0.437024
-60.389809,-85.050306,0.318037
29.669503,131.881382,0.276007
13.273577,-208.076177,0.395616
-123.975451,119.791603,0.016957
-114.636456,-30.142277,0.722875
26.375321,147.868255,0.195171
-65.281314,-30.610842,0.401975
-35.409895,24.356375,0.015193
-45.635088,44.820562,0.208834
-65.383980,162.829999,0.003348
-28.510715,-27.280031,0.276576
-45.782375,-66.264078,0.205866
29.134445,-137.683387,0.024033
-83.094956,-129.702390,0.790626
214.735654,98.931895,0.101310
82.521494,47.363005,0.624707
-163.959965,-148.889787,0.970456
103.189450,47.040436,0.620541
65.985954,-99.715674,0.106774
99.792288,-6.254224,0.846716
51.156653,23.644691,0.761346
26.802985,139.100704,0.018183
-83.081941,26.789725,0.898183
53.094581,-81.646583,0.845483
-83.022562,-55.071127,0.096634
0.823266,158.623211,0.947437
-3.206009,-2.145946,0.425682
-41.363884,124.419531,0.387945
173.737867,46.021830,0.028163
184.240690,-8.531688,0.504829
-28.594532,167.750482,0.608427
232.978638,-32.974890,0.168993
56.924658,60.266783,0.100085
96.008167,86.077324,0.785964
-15.199673,-5.196767,0.823389
-72.443982,-13.545280,0.205462
-19.908115,-43.419565,0.600944
9.036779,109.223849,0.161011
42.193459,-93.214214,0.113607
-52.557756,74.938245,0.440553
-75.357373,-126.328506,0.793670
-24.492440,91.530509,0.094003
80.268588,-99.168304,0.092162
-88.438270,65.603233,0.549959
15.621815,-101.200764,0.777377
-142.021943,-25.939325,0.473355
-104.295096,-17.525024,0.267288
210.670035,-24.185212,0.595747
150.656625,115.057406,0.392760
-30.747386,-56.757834,0.602116
206.739800,-120.472713,0.512377
-52.002430,-230.385966,0.970385
32.922596,14.259514,0.026526
-10.077367,112.258410,0.014813
-125.185151,277.469376,0.259699
-49.056072,41.848273,0.516233
-24.563572,-172.224393,0.959171
107.274676,106.377854,0.813800
181.826854,28.913631,0.052447
127.277559,103.644715,0.338017
-61.216644,-46.557319,0.430164
0.090754,-83.093742,0.998855
118.669122,101.086355,0.612308
54.780455,29.439895,0.798633
-165.807918,-105.574356,0.588763
-37.049137,183.213889,0.858506
92.842645,-92.888925,0.808818
-46.310255,94.050550,0.671877
206.568193,-116.003129,0.153865
-51.627142,-57.446380,0.769245
-180.621630,-58.139606,0.008820
42.781844,-262.754121,0.132953
-120.911484,-75.833802,0.902822
-53.652104,5.073838,0.227482
-72.059583,60.376181,0.340472
83.509500,71.114169,0.765963
-144.716378,-75.201540,0.998267
116.171846,-44.922162,0.787598
72.749151,-74.146709,0.391763
65.587824,0.228016,0.025756
80.836182,38.708552,0.511546
-52.398846,10.313199,0.656428
-80.913831,198.253145,0.984880
-274.164150,198.531230,0.831406
-82.431247,82.512720,0.857527
-109.793722,-107.683770,0.490067
-61.820999,-119.488695,0.653791
-30.439610,-224.911055,0.043310
31.263363,33.576177,0.870401
172.886346,166.508186,0.356069
91.137234,40.319456,0.726130
55.080236,-131.592787,0.168124
-73.980204,136.868070,0.283244
11.710520,117.316516,0.246925
68.377496,-131.115046,0.502136
-100.995668,12.066999,0.759298
125.539704,-96.669347,0.383070
-60.291039,214.926947,0.973380
2.261359,133.021731,0.520456
29.430530,-60.776745,0.018826
-81.970587,-65.767413,0.031056
109.603663,-126.636580,0.165737
36.848224,-144.740498,0.746635
42.361981,52.513018,0.476319
26.582806,-106.737402,0.957529
72.767697,-15.461525,0.385809
15.150161,-145.561313,0.548401
-114.727557,-49.227886,0.830461
-13.948826,7.239399,0.008711
-18.045856,-34.799239,0.971552
-26.396231,8.098404,0.389631
-63.469282,18.578019,0.060761
-190.042651,135.367580,0.068890
79.903448,56.916349,0.858629
31.419333,41.729378,0.323207
73.720002,-51.777094,0.304380
-134.458455,-34.107512,0.502918
61.112900,-76.408711,0.678389
-118.164965,-33.867580,0.003664
-59.519960,-168.138394,0.543973
133.755052,91.286961,0.451174
98.501826,-89.146190,0.797085
-142.004998,-4.931184,0.531832
158.061926,145.936893,0.248631
142.441466,-72.906617,0.019495
90.575790,-11.759042,0.825094
13.033740,-110.925154,0.350665
-19.244226,17.119077,0.125592
-29.406394,104.335072,0.169405
19.605900,125.532595,0.209989
43.793919,39.200365,0.406010
-89.611264,12.632755,0.085000
-83.303919,128.981793,0.373291
-11.983510,57.874158,0.205279
-5.776871,49.575915,0.655300
-60.908900,82.196156,0.228231
-26.475268,-41.364866,0.845456
13.409354,102.322557,0.483927
-140.500775,153.402743,0.828554
85.959154,272.626099,0.409196
-95.320383,31.612674,0.743043
51.848038,-22.537089,0.776590
-119.757530,121.094128,0.917526
-74.738552,99.647698,0.994254
-35.459052,-27.107535,0.960084
-24.461094,172.606124,0.741205
-160.341175,19.177089,0.810934
-121.773523,40.394073,0.495576
59.139309,80.836133,0.731803
43.213836,-16.014908,0.782665
-97.984238,-21.977590,0.444517
59.923887,33.323720,0.717938
-59.346062,173.395938,0.219377
-57.368435,-170.715459,0.265081
-101.267219,127.810580,0.408817
-152.286515,83.951551,0.206863
57.473521,155.031624,0.575682
-44.111048,189.510223,0.902283
-68.471444,91.155121,0.574813
40.300131,-100.881423,0.463698
92.812952,124.230848,0.727846
63.911859,56.033263,0.077298
-45.081804,181.443294,0.827614
14.494506,160.552203,0.776111
-32.573376,-54.758055,0.017530
9.678895,-21.831422,0.258746
-50.074232,89.590959,0.066165
-9.557436,-34.633861,0.573351
47.040878,43.777002,0.217107
60.707163,-1.734195,0.311874
87.683898,87.941318,0.670469
-84.334259,-83.439627,0.041333
61.476240,85.524287,0.805309
-99.815489,-100.282583,0.637148
-49.295671,-118.245526,0.839977
143.800501,37.084644,0.426245
-3.784346,37.691571,0.874682
65.974288,141.603383,0.909666
62.276448,-79.029218,0.507653
-130.687055,-34.943218,0.702518
-213.615099,40.885006,0.807239
-9.926799,173.507641,0.020744
83.311195,-89.261020,0.175238
69.390393,4.603470,0.499629
-71.329150,15.864330,0.471454
198.107845,173.374683,0.151607
-38.466342,137.457247,0.780281
-121.320714,-173.287933,0.553412
21.994315,-61.019647,0.431037
0.991260,220.798511,0.611259
-142.378880,112.173342,0.578421
78.209554,144.167918,0.972034
81.453207,-29.827527,0.050105
-17.678423,81.529786,0.658067
48.526410,-91.672848,0.084327
-84.525630,-12.648152,0.001400
45.726675,-102.999612,0.221997
57.040390,86.661749,0.007706
23.882444,-25.520996,0.715034
26.680018,165.830990,0.420171
116.608561,26.287181,0.211445
80.753457,-22.297710,0.168109
146.380548,-76.262695,0.996968
-56.669290,-12.298684,0.023151
-0.508287,29.886505,0.802295
-96.483623,-145.223267,0.184030
81.645725,-10.717726,0.653779
40.012937,7.132867,0.458305
53.272184,0.993362,0.530151
154.079966,72.988592,0.256240
96.260349,-208.278736,0.010638
4.953029,187.361997,0.989143
102.800015,199.008474,0.205070
-78.162822,21.077945,0.140181
-18.821919,14.294788,0.469833
-151.239867,80.433689,0.863425
100.321971,39.302522,0.583690
149.071336,-109.663200,0.178351
-39.504856,105.256709,0.936530
-174.418009,-234.569165,0.206624
55.560629,-65.591368,0.657929
27.527610,35.667342,0.357838
108.791587,22.068028,0.226202
90.146010,103.121311,0.019895
188.360905,-147.372059,0.948217
-3.161551,-65.066186,0.563914
-20.543943,5.576364,0.132722
52.400424,-113.544456,0.789332
-25.592259,-81.035872,0.225647
124.731021,-11.182605,0.570758
177.588622,-21.008021,0.002220
-77.661617,94.454204,0.900093
-147.583175,134.612511,0.126648
-26.373027,25.503524,0.230244
-37.123249,-105.849779,0.324849
2.585117,-47.433222,0.878618
-78.149675,65.323260,0.343495
17.626318,99.561147,0.938185
-40.494427,163.112041,0.553829
10.050402,158.685133,0.075622
-163.807531,103.102559,0.940700
-30.435950,9.963943,0.630059
101.081214,1.748432,0.214728
-63.539424,-133.609755,0.484270
-148.608144,59.596096,0.008181
65.892970,9.268339,0.759256
-70.182195,73.176749,0.057706
39.328321,62.726898,0.244301
104.839758,82.321276,0.208530
-132.252205,-46.414171,0.586746
77.522522,-139.519477,0.756084
12.840599,-130.925386,0.906564
-97.417028,-123.585183,0.716058
43.117222,179.692844,0.966050
-171.973108,-9.988230,0.544011
-21.537633,129.008319,0.807753
116.957169,-46.351324,0.202811
41.168049,77.965123,0.235613
60.862277,-242.052338,0.079383
-23.150278,33.515068,0.987582
-10.555903,-144.770689,0.957854
-13.736443,193.651226,0.584439
-52.174020,28.665962,0.886031
77.891233,-30.563880,0.960141
103.579253,138.861802,0.844837
71.877429,36.693541,0.291297
116.598167,-92.082740,0.719995
63.810020,35.763736,0.450079
-127.763988,-5.583743,0.717892
-36.294973,115.897410,0.104036
-56.910093,81.671504,0.437553
2.040378,-87.865943,0.179213
-104.086859,-43.418532,0.527384
-138.795806,50.284201,0.457754
32.595798,-17.993087,0.930989
65.582378,18.548336,0.284723
-83.985331,-71.467518,0.131914
-131.312510,-34.627613,0.491224
84.475374,-196.074463,0.859632
25.334037,92.657621,0.255310
-179.537637,120.291554,0.530217
-59.026591,-69.574957,0.418528
-117.110583,-77.390056,0.750617
-164.759776,40.464617,0.589707
-145.204006,43.732288,0.054485
89.038969,166.090983,0.187985
308.168548,9.119616,0.297482
-137.738402,-12.056112,0.411359
33.189776,-119.550740,0.576967
-25.699316,-120.209848,0.056114
177.482824,-46.815945,0.574069
-30.966222,-11.098543,0.432453
-69.265341,54.718226,0.549151
-26.903774,-76.813857,0.394854
-3.424547,167.772411,0.647086
204.197141,49.367543,0.950668
38.460565,40.942811,0.412992
104.287702,-123.924867,0.385151
137.332422,76.016599,0.975603
-154.731102,28.066730,0.312933
-96.408720,-182.248486,0.033020
17.839769,4.511864,0.145333
164.133777,97.835481,0.115082
-5.440011,53.585537,0.664929
25.845725,57.126748,0.777867
-212.006733,-59.007897,0.367505
-110.503597,-5.246819,0.086700
132.887219,-82.487292,0.704515
148.912475,-49.399987,0.592935
58.621122,-44.036060,0.761619
-36.212865,64.534646,0.734235
126.791583,-78.608167,0.230487
-9.868851,-73.118527,0.380584
-140.690032,-73.847033,0.014479
102.949156,-36.888663,0.130928
137.207588,198.713862,0.929436
-18.694516,-80.550862,0.567558
142.602881,226.201622,0.824022
-3.405929,-12.616445,0.893387
-132.026049,110.893944,0.555710
-184.587713,16.692081,0.637589
43.951293,87.942185,0.062570
-73.205000,149.863605,0.717434
-74.267266,3.605610,0.939624
-23.719233,12.310489,0.502666
125.967689,-195.163407,0.477479
-245.545284,-81.883032,0.748898
29.492753,-6.988165,0.539272
-3.021232,6.582325,0.688678
51.546287,-120.044854,0.331276
-33.450459,-22.062515,0.777048
20.273516,-37.082737,0.441417
114.814533,-2.084966,0.658554
-44.366870,-94.739765,0.216158
183.728590,-42.310377,0.632384
60.930856,26.591086,0.616609
37.436294,77.460613,0.404162
-12.735508,-18.085509,0.830663
92.731410,52.275208,0.635039
-88.678427,-3.742208,0.844175
-147.609521,-102.682270,0.690312
49.484056,71.545392,0.495403
111.679101,172.544903,0.761073
-52.379929,4.222238,0.296967
-208.012576,63.712368,0.732766
63.860019,126.549622,0.332839
134.168745,-38.015947,0.435398
202.232745,55.872625,0.530556
-83.148068,-244.755399,0.828997
-7.070940,19.068134,0.051192
-144.272642,65.085634,0.366630
18.238738,154.402033,0.817363
-36.135464,-194.938298,0.313283
168.798403,50.774142,0.799470
-191.600175,-48.826425,0.518961
97.936700,58.902873,0.635587
-0.275088,-40.038761,0.267119
-71.618268,134.427317,0.876145
38.686091,32.864402,0.048281
35.706812,65.414491,0.489798
69.846107,-104.268873,0.991534
48.900925,2.126527,0.833314
67.047118,-37.847173,0.461074
-15.384222,-195.048047,0.049001
-83.039041,40.587353,0.364322
149.699460,-105.312100,0.397932
90.127623,-80.526848,0.574417
-46.651811,-0.175122,0.819443
70.902577,-21.390456,0.923686
105.653176,-134.353396,0.625233
32.802016,38.295662,0.140506
-45.685417,176.018517,0.097525
-123.273482,47.418274,0.631560
5.120346,-5.019740,0.808270
-6.415061,9.976297,0.718523
95.624029,115.111898,0.656988
140.525077,-22.989554,0.860371
-93.561694,136.669266,0.203082
-61.969198,0.427999,0.842870
-102.340150,-138.303484,0.050164
203.348254,73.943881,0.018138
75.617491,12.823308,0.091589
-90.870244,-6.603351,0.220825
13.166608,-48.144682,0.446583
6.563208,-77.441295,0.282002
84.517198,-36.043018,0.598845
201.449258,-8.773777,0.650940
-193.731367,-83.379192,0.392938
97.300834,90.654622,0.895935
-72.113137,20.278880,0.148132
-71.283828,166.929035,0.857335
-40.244908,134.739181,0.075598
-196.471170,-14.986396,0.645764
11.069409,-90.397838,0.298017
49.888896,62.311976,0.188218
2.248148,-165.680632,0.743297
-22.538018,-41.541387,0.166501
-139.303905,61.195227,0.245897
-96.385619,-119.702637,0.700446
24.071845,-66.342422,0.144675
-37.187835,-123.515945,0.569239
170.343128,195.228419,0.793501
60.796497,19.215614,0.759491
109.428830,-48.614211,0.139743
42.639021,10.657109,0.267347
35.139809,300.021535,0.481620
-73.590501,-95.131327,0.463311
28.575953,-178.472191,0.420102
15.966638,126.504944,0.495636
-111.884505,56.441772,0.617539
55.221861,12.289758,0.146268
-213.384906,133.141035,0.822475
-96.825856,-17.899491,0.436221
78.549082,94.342038,0.082784
31.915325,-60.136484,0.444243
202.828505,25.715326,0.485125
-132.865903,-35.644775,0.173434
-61.424736,-44.443306,0.676795
58.778885,83.693859,0.501840
-152.692850,-5.311589,0.866765
249.334684,-69.327290,0.839163
83.859694,-142.308217,0.057768
-77.688215,43.622845,0.871858
123.712495,43.915400,0.568554
-16.055717,-64.918180,0.736825
42.137835,-189.979987,0.603140
-44.356063,6.078242,0.512566
-100.842265,-59.818478,0.415267
-34.747966,127.192051,0.883133
19.375419,-101.503265,0.419609
-56.974825,-62.310200,0.242295
-48.708462,-146.532804,0.847775
69.911105,-2.426975,0.317292
90.489700,-64.874348,0.421486
-201.753949,54.127169,0.194946
48.641014,-48.958714,0.941841
-86.195617,68.322134,0.952661
-6.547131,274.653276,0.441617
-107.310727,-19.620850,0.726717
24.714432,-91.421566,0.261660
15.350533,88.163036,0.549395
7.088343,100.646988,0.365936
8.997115,55.772039,0.014400
76.464371,39.540948,0.912694
44.419665,-38.700628,0.234377
45.137953,-33.700035,0.840853
-64.655640,57.340361,0.932415
65.465789,143.147581,0.838655
65.845406,56.523242,0.814836
111.323923,12.843184,0.061970
-101.350702,8.110678,0.060680
-179.582508,68.705289,0.414840
46.433347,-68.401377,0.663939
83.137178,-36.272414,0.066805
68.985000,-91.815680,0.431529
38.931419,63.371515,0.199484
-267.941439,-64.838122,0.041244
58.613041,74.551299,0.658505
20.565873,78.385972,0.422165
1.278638,138.145236,0.738935
31.251961,160.412623,0.085094
-78.956956,-306.046026,0.651142
-112.986283,-48.580864,0.122928
-94.221154,-32.029722,0.885294
-164.439958,236.927578,0.951269
145.773705,14.082159,0.817727
-130.615176,-109.740689,0.042565
62.720227,-107.737131,0.133681
97.563202,174.282386,0.529390
-15.291980,-21.451422,0.906235
-112.397505,59.326871,0.061627
-177.195023,7.752654,0.912741
67.169195,-129.320489,0.959544
-14.788282,-18.704189,0.065479
-164.779608,-59.875227,0.204731
-13.455011,-9.328080,0.751070
54.216193,128.401041,0.305439
260.072303,54.083093,0.877203
-114.012479,41.852610,0.452686
-18.969771,155.761826,0.751840
-19.718793,-61.526618,0.724603
80.381783,-28.223056,0.004740
3.274337,67.474838,0.591136
-82.065352,193.838290,0.912215
142.607221,-81.075345,0.983021
59.275287,52.713169,0.635408
6.972444,217.690045,0.722739
197.027198,1.160716,0.258277
65.133094,-77.155794,0.524084
132.977347,-15.763696,0.893844
41.363130,-45.789030,0.329216
41.271245,-21.562068,0.222076
154.196333,94.407898,0.837842
-33.082300,-67.057946,0.297058
-120.106440,20.304866,0.298369
-27.496177,-145.540254,0.105200
-7.285787,-14.695827,0.088616
156.091172,70.219046,0.468623
101.690861,201.317487,0.655140
52.193891,89.536290,0.649147
-169.324911,15.359695,0.946204
122.765174,53.906757,0.856523
-150.528752,100.882415,0.058325
-46.056380,169.707203,0.516615
25.368401,1.166175,0.110144
134.063334,-26.005193,0.519599
35.024734,22.524722,0.238510
109.028175,8.036474,0.720906
-212.419958,189.815282,0.014371
121.212096,-1.835143,0.258144
-249.089830,128.914887,0.892114
-79.405054,-91.930286,0.190990
59.594230,96.369073,0.247468
78.142692,43.882373,0.304003
57.623841,-91.186357,0.743423
-51.416236,-25.148539,0.925130
52.323243,-29.033660,0.883831
71.894936,-4.170136,0.062147
-135.570646,39.210102,0.940140
-4.103352,-73.535400,0.583050
27.590408,-54.334310,0.095308
53.548152,19.587400,0.195147
73.423060,-166.482930,0.279461
22.088848,-44.273710,0.487204
121.814122,48.565288,0.016050
81.124691,-31.308289,0.785467
-29.811366,-101.899036,0.300149
23.097692,-80.853910,0.635519
118.759891,-132.572096,0.838484
9.525124,-28.898294,0.680209
284.734053,193.992491,0.013768
91.684174,-11.398162,0.354736
42.583935,0.814288,0.569910
-132.848182,-119.222848,0.291868
-73.889173,41.064170,0.303920
-125.131439,-111.084315,0.852762
79.773603,-91.610282,0.739360
-116.373306,120.742291,0.343816
85.948711,96.374388,0.728488
-77.887710,-61.288006,0.721745
-70.536396,-64.760564,0.941134
1.630626,-16.215361,0.967400
-6.574394,205.632306,0.654388
67.149074,70.587053,0.864804
-34.518634,-136.040613,0.705376
155.992736,-123.326826,0.436252
-87.548752,46.485722,0.224926
-49.029370,52.597662,0.414356
-22.130011,-61.418667,0.939996
94.560046,-89.090729,0.253985
81.542557,44.112388,0.745938
64.043309,-100.148119,0.459183
167.012825,-148.696613,0.564727
-206.115542,148.681829,0.887180
-176.126268,74.542712,0.780086
5.049866,-23.655717,0.034426
-16.571500,-65.939759,0.938890
-139.921972,2.632621,0.278901
106.198057,59.281558,0.979381
-101.702927,-65.064801,0.011909
188.248725,65.409153,0.776066
151.098548,66.507019,0.651760
185.754568,147.932377,0.326224
-89.688293,-80.998663,0.655171
-190.486347,6.940386,0.343390
-108.264864,-133.824279,0.231028
160.743101,53.223618,0.197318
-133.438934,-36.178738,0.740602
-100.546599,130.937342,0.519613
96.764038,31.159091,0.801038
2.872142,-30.599223,0.402938
-17.353900,117.346791,0.430815
15.910531,7.202270,0.157389
-12.957125,125.293339,0.526247
-85.890169,-25.634015,0.894457
-158.433248,-41.835608,0.692883
-51.465509,148.927015,0.417138
-15.081222,93.370719,0.627584
82.661669,182.214147,0.867796
-109.804738,204.800997,0.122102
-104.288329,25.571210,0.625995
-108.196337,-136.659747,0.306376
-41.846090,105.404609,0.330154
-19.047595,8.525653,0.282575
16.110767,19.891658,0.840977
28.756536,10.192418,0.363363
-3.436202,96.183969,0.747478
101.049596,15.766798,0.159445
-71.939187,24.174284,0.887440
49.150568,51.693988,0.915370
-18.968318,39.968079,0.616826
-85.016824,103.952466,0.747624
59.008370,-10.525375,0.640738
-157.152805,-100.244129,0.333941
-52.332023,-12.891910,0.223193
-123.000316,-125.441273,0.165091
-29.116818,-96.986080,0.402628
-6.596225,-54.563662,0.413246
76.671369,-122.585109,0.506953
3.512371,5.625450,0.838822
118.233792,-37.383103,0.770597
-102.905473,29.532090,0.956203
71.602099,-35.915751,0.040738
-6.558936,-104.902944,0.593477
56.753322,-27.321043,0.898676
68.335849,-138.652644,0.058756
36.650549,0.438244,0.370700
-6.361176,140.101271,0.922877
-162.006615,-58.869709,0.905611
55.928472,-5.191086,0.694442
131.482988,7.985905,0.479887
17.118027,-38.169183,0.279318
130.280458,-103.235474,0.045934
-57.603818,7.488376,0.156005
200.576122,-88.924443,0.936307
129.809611,113.289443,0.802096
-94.315680,61.267053,0.112755
69.415831,-23.644329,0.920676
3.006685,-105.357554,0.044415
20.666024,223.520207,0.575167
112.961379,-13.742358,0.822154
70.565246,9.401768,0.332487
-148.171240,54.536228,0.943582
227.428797,-121.902559,0.630929
-62.961989,-21.481992,0.180462
-66.286508,89.555223,0.161131
-59.541111,141.695558,0.454638
76.285152,-71.611937,0.065923
39.668033,59.673415,0.929623
-244.854238,187.416776,0.979571
52.997722,48.892606,0.471098
113.678038,6.430939,0.465523
-19.698580,-126.094658,0.762621
-4.744270,12.533882,0.458446
133.713654,-28.378829,0.092354
84.868636,18.416645,0.360359
-33.339518,-21.826006,0.222530
-80.839268,-35.260787,0.769404
-36.545588,81.143372,0.994927
212.441939,97.865381,0.836180
2.442126,171.965839,0.590740
-185.689304,-112.380076,0.603214
-225.096399,21.271645,0.786958
-71.698316,-171.039473,0.353609
-56.370446,54.421142,0.420447
-63.563224,-45.409908,0.176631
-55.528576,48.833886,0.287228
-84.264182,220.945491,0.460322
155.724900,-153.847550,0.793351
-19.025465,40.071596,0.866929
-57.147743,-135.016827,0.732069
37.169895,-77.342996,0.916156
-74.392174,-99.961845,0.378798
-115.728937,159.116245,0.999519
27.612200,26.682366,0.695042
5.691591,-27.301517,0.218649
-50.118575,3.399156,0.906962
189.589077,5.250450,0.162292
48.754488,131.077420,0.601010
-165.628107,106.626889,0.661185
113.111022,-84.301078,0.425214
-164.650317,-101.281328,0.407192
9.402458,-21.517238,0.526476
-90.579691,47.790717,0.486135
-2.503331,35.171178,0.085670
-238.802362,86.514227,0.630249
-73.088090,-3.859757,0.108597
-233.207200,-318.768747,0.359918
-169.044643,-96.639884,0.891169
41.370919,29.324041,0.334571
-48.333031,35.820351,0.689814
-76.039812,-77.699449,0.103970
-109.850080,-128.525871,0.055013
68.317198,59.711764,0.382358
246.466362,146.796662,0.749852
27.576527,-37.772400,0.755170
-136.574837,220.075204,0.875177
-238.387106,65.605022,0.898196
-94.592311,51.950666,0.832080
70.721222,-106.158233,0.235504
-35.291288,-121.624518,0.553327
-27.494545,-6.786955,0.001513
170.203371,-47.064408,0.754207
-134.689173,113.251172,0.501614
-104.010734,-167.268115,0.897346
163.321261,-170.964480,0.077749
31.503013,35.176229,0.472869
66.941546,-89.148659,0.860704
-71.967855,-186.120172,0.784791
-29.412045,139.262433,0.705253
203.806720,105.911467,0.359983
-174.056867,-182.419894,0.720397
177.706967,-14.273130,0.533818
-175.951668,-58.360976,0.818752
157.620851,-94.224109,0.573355
102.721211,-65.751716,0.822663
-207.539981,-57.960381,0.360159
68.140369,-96.271342,0.209341
114.377601,125.435774,0.220251
-106.849379,-147.617183,0.419030
136.814702,-121.157725,0.839547
72.824646,79.545664,0.955456
-144.840820,86.601746,0.086516
174.252307,-97.269344,0.241602
143.837698,-7.407066,0.209039
62.976627,120.160857,0.292033
11.466529,165.205141,0.998143
76.271082,-124.588325,0.551532
146.999060,37.768533,0.596487
-194.297022,-138.159481,0.566480
18.717156,-6.035340,0.782836
74.301170,-80.645955,0.544052
-44.474676,-215.113299,0.699773
135.434500,-49.086926,0.428030
61.703251,-8.582508,0.063983
-132.846064,-12.559252,0.455189
-70.162976,107.487131,0.204759
-105.936042,-40.954265,0.257887
1.339477,-34.800545,0.177059
-2.486188,-214.910323,0.951854
114.905024,-161.146675,0.763278
75.540996,-17.680217,0.841646
64.975438,-131.940122,0.098790
-153.008263,12.538646,0.009808
-3.330898,-89.328299,0.549227
-150.290061,60.170147,0.140146
-292.500873,-9.055807,0.945598
11.189086,71.529239,0.504613
-51.207949,22.524514,0.785493
-236.985481,35.857601,0.393939
104.767667,26.489034,0.554110
48.491444,-37.301359,0.842384
-29.219740,-130.226167,0.498749
21.277647,-119.665811,0.530813
-14.327107,-93.730305,0.244186
-21.214192,-57.021777,0.765313
82.615636,-18.028965,0.335276
121.672656,2.844549,0.956546
-191.458433,190.874472,0.921267
-209.593442,76.913630,0.438042
-95.759148,-20.011519,0.650293
-196.176196,110.115515,0.938991
56.161910,66.397801,0.095583
-3.933096,94.635976,0.651365
164.038714,21.879936,0.260542
134.982942,216.081974,0.524063
6.909071,122.753638,0.810560
112.474624,-30.261515,0.183264
-79.272395,-257.470889,0.421615
-91.881133,-91.880656,0.519673
23.718800,42.845372,0.182741
-52.599210,63.620976,0.437456
-15.960429,83.028787,0.590733
18.992415,91.985241,0.519901
213.013770,-21.654658,0.719302
-32.563570,93.529660,0.274055
169.877659,-74.343609,0.999357
-72.677470,19.339043,0.021777
-64.607856,131.723382,0.278445
78.735225,35.242589,0.903881
-41.727934,-141.128461,0.252203
37.570762,-42.920711,0.521444
-76.137827,-10.843122,0.911572
-16.629987,44.412684,0.568900
-81.255530,80.551632,0.218188
-99.787846,-91.002310,0.576134
159.627204,-76.081189,0.165008
166.249450,-176.520866,0.954864
98.075165,-145.793381,0.854101
187.439552,-33.126489,0.496873
66.453284,-58.161547,0.419421
62.098294,-45.864578,0.029373
-187.410517,-39.113637,0.257741
310.446163,120.951725,0.081404
-22.923268,-7.708495,0.942789
-64.727971,140.612030,0.434234
-8.174303,-130.569944,0.709687
-17.469995,49.930270,0.523893
-15.781277,-2.836094,0.067174
70.542014,31.696462,0.527184
41.923113,-20.632677,0.013385
-41.515006,189.810536,0.093582
140.239807,72.149935,0.606615
-265.787433,-88.613947,0.423281
-21.234417,66.189029,0.639658
73.936538,181.758163,0.091448
60.009183,49.903702,0.813707
20.812444,0.996925,0.893179
-111.959128,-74.515425,0.095290
-7.483454,-81.042091,0.812683
155.826598,70.284367,0.922097
85.656875,17.312211,0.866815
97.897284,35.551605,0.635166
102.675734,-144.865643,0.243742
-121.733314,12.564647,0.205220
41.125970,-70.231038,0.524488
-1.889689,-81.173400,0.881127
55.376698,-29.939409,0.607730
-43.476268,56.656912,0.297183
-106.862961,97.284947,0.486068
-60.050360,-95.135833,0.802572
165.694811,-57.442079,0.636070
-14.706658,-6.169575,0.893991
-75.568503,-64.512393,0.178936
-120.541365,-155.371870,0.849462
25.347085,-29.972341,0.063685
-41.660372,7.835565,0.209677
8.939458,-1.038672,0.190796
-158.809119,40.444321,0.122811
70.133133,72.907837,0.860323
-149.023409,149.706523,0.688975
-62.693526,-21.668544,0.118730
-30.172691,21.564534,0.222365
15.816115,-18.574857,0.567623
7.574219,190.167189,0.599772
159.323170,-30.558302,0.102389
25.698192,-21.406065,0.157445
82.578383,152.577019,0.351641
42.480885,-48.410192,0.095944
5.368971,-132.735578,0.923998
-81.720772,77.790084,0.269939
128.621004,121.423880,0.162993
-73.919812,68.857269,0.644136
121.187326,-44.214043,0.505386
10.416526,129.386917,0.393082
-66.739323,103.145522,0.052323
-24.825385,117.287056,0.013957
-143.436986,-146.238767,0.017192
-40.747714,21.836855,0.880619
-59.360023,-187.938691,0.273092
-132.266038,-56.109794,0.803887
38.582742,-2.296764,0.193052
38.662861,-197.227759,0.552787
-25.849347,13.263388,0.867406
-3.562118,-202.711288,0.134305
26.387575,-62.197008,0.414448
16.391635,176.894810,0.475154
-32.492172,104.151539,0.712852
84.756725,-196.909195,0.957180
-135.594291,67.877001,0.887517
17.175021,-67.970797,0.828504
-41.301530,-83.386522,0.798440
-154.570831,-100.787491,0.959289
-116.605332,108.745348,0.179826
-22.819868,26.932939,0.988204
157.736863,-27.761998,0.990950
-110.806292,-8.292125,0.825058
1.569651,-72.879884,0.500079
-36.755761,-32.509172,0.829982
-33.093140,47.650655,0.677341
18.666663,-52.337446,0.934420
-286.071130,75.392477,0.727728
171.526454,198.535549,0.969672
-137.981247,225.890135,0.094122
11.419044,-173.933075,0.826119
90.971424,78.532160,0.860019
14.786242,-27.675514,0.342991
84.548994,-44.999862,0.351925
33.760742,114.198477,0.920028
-106.405019,-60.823098,0.756638
30.118443,93.476561,0.007989
-113.449920,63.818917,0.231912
30.425753,9.712463,0.166218
-261.616205,-28.745135,0.424527
55.876137,113.232704,0.679978
-65.676118,107.505760,0.747125
178.636124,-114.136704,0.776294
51.088488,17.906512,0.484005
72.034022,6.654203,0.704533
-25.436188,-58.742474,0.314172
142.492678,37.967867,0.662556
-155.582595,37.999934,0.587422
-33.968812,211.417569,0.377569
84.363708,-272.261285,0.729165
-84.875347,-38.602963,0.948412
-15.255268,-23.180052,0.898727
-49.264251,-75.057892,0.021238
-63.144446,139.018448,0.464668
24.166037,159.549151,0.702992
-277.503318,30.977669,0.322879
-9.462884,86.982569,0.864700
117.497776,188.866495,0.575872
27.758769,116.379115,0.829233
125.304618,34.072887,0.260397
-84.519880,-31.594111,0.155092
160.422052,139.726036,0.678402
67.786645,-104.436526,0.048751
5.676524,-26.277817,0.677207
88.851204,45.687277,0.942906
-51.251349,-139.233983,0.963173
6.406785,-136.622500,0.086244
104.618740,-8.605393,0.252701
74.956483,215.661819,0.249609
-61.964042,21.147055,0.667931
169.230659,-124.158361,0.020728
-36.904488,-66.213592,0.198352
29.854321,78.351322,0.518877
-132.694774,49.438002,0.280911
-81.355826,-62.482974,0.796871
-21.220519,71.781047,0.568653
181.285545,56.244385,0.091077
-148.280306,-87.469881,0.881923
-13.064415,10.941179,0.127228
-164.546298,-180.568488,0.348475
14.051254,130.354978,0.916479
