x,y,z
17.291547,103.916213,0.248772
79.380014,44.814807,0.904971
100.090794,111.810991,0.713891
3.573384,-43.745870,0.067363
305.287525,-111.800247,0.357805
47.508073,41.344757,0.630489
-2.781380,-65.637852,0.970672
178.724687,-67.183058,0.734009
27.245316,-83.613488,0.388215
79.891649,-70.702829,0.618751
-155.883127,-102.094810,0.562597
15.546556,-61.135530,0.952124
69.942929,22.046636,0.301051
117.579852,-90.591120,0.561792
24.094329,3.581427,0.546596
15.154383,36.574716,0.959595
43.200584,46.723890,0.898729
73.262069,-91.928779,0.087774
-87.317209,63.182796,0.346334
-48.340314,-5.472968,0.704206
-42.688970,-150.266570,0.113286
112.244937,-20.387823,0.022258
48.442617,-89.892612,0.512097
-8.396963,5.788067,0.481410
278.299312,134.274921,0.837580
-150.483620,70.512036,0.529087
30.637106,-86.712213,0.285562
140.060271,-55.243853,0.290026
-19.722215,-149.073644,0.969644
31.397764,67.917938,0.742698
25.691945,64.058985,0.441919
-63.092620,150.505406,0.924683
-54.013888,-62.631246,0.228412
145.951830,-96.561141,0.777876
-90.514967,86.099066,0.386605
-166.523033,-54.442319,0.154834
170.863648,-21.222411,0.721032
35.415319,93.870450,0.628180
-124.116211,144.289384,0.576767
51.840076,-137.767362,0.446248
127.113813,80.954442,0.163646
5.038607,1.257861,0.641833
-118.953289,144.400408,0.576735
-26.965470,27.889675,0.588784
13.568336,-371.517655,0.722460
63.615852,51.126923,0.968597
-76.435486,30.493292,0.858084
116.334747,-92.220737,0.634438
162.870865,121.688680,0.139573
77.388140,-2.126598,0.939573
75.389627,-14.128054,0.706607
-75.588671,28.940919,0.886740
-7.493720,-28.490454,0.486872
-154.250695,0.646010,0.034018
-172.792139,59.400358,0.217354
69.393326,141.356013,0.002237
-147.314828,-0.799540,0.763319
-170.876255,23.694841,0.569274
-180.531208,-60.772594,0.952544
-71.346853,27.969022,0.966272
119.657205,160.590547,0.990074
-180.594500,-110.591448,0.972100
-88.414866,-4.116634,0.445313
64.932962,-43.658915,0.469343
-136.407851,-35.874458,0.584209
-69.623514,-59.926280,0.480256
-68.408440,20.187162,0.601528
25.015697,33.600499,0.819894
-38.610639,125.671896,0.259131
44.570518,-33.358139,0.641696
99.190734,-29.623022,0.648748
63.455451,38.002902,0.919280
-41.324369,153.220779,0.197398
-28.492705,150.577074,0.451746
-218.534648,-149.370522,0.518542
169.186504,-45.742481,0.207602
220.512883,93.066433,0.365737
68.026420,136.071816,0.592591
101.901164,-170.255886,0.839422
-102.274766,-41.750995,0.198171
47.576621,-7.358047,0.532133
-6.179195,-220.681473,0.413239
-99.965681,-85.746577,0.499717
112.547864,-51.355706,0.520254
-155.060272,112.096472,0.723436
-48.780797,-60.801010,0.278311
-86.389772,-155.629885,0.090788
-38.955336,-2.766886,0.887239
53.088885,86.242987,0.503608
162.411775,79.352873,0.144813
86.742699,33.810372,0.493087
315.971180,167.949097,0.137170
58.573942,-72.326699,0.685935
-156.163704,43.747959,0.874673
24.841207,28.396392,0.992542
-127.320060,29.222088,0.063513
-170.196776,-62.208115,0.953224
-93.644040,-54.189585,0.484674
152.943368,-206.076971,0.821406
14.899812,5.904377,0.102493
210.208002,74.461104,0.514800
-123.947263,-80.256248,0.222358
94.133971,-167.008764,0.000540
101.744976,49.777355,0.757343
-117.455778,105.668882,0.791563
-57.100584,-108.902829,0.887113
41.587873,-68.502725,0.738519
135.569519,83.410670,0.449810
50.689768,32.524205,0.392467
24.372943,127.946075,0.475724
73.844247,-25.907314,0.532157
59.450419,60.585517,0.856079
-132.573500,-211.869734,0.435832
148.366491,51.556673,0.961407
63.878078,-108.449103,0.495650
-73.542498,25.055555,0.730493
75.695008,25.253959,0.046524
89.220733,-18.590649,0.397828
-70.560906,-97.712146,0.591339
176.718517,108.312340,0.302319
-36.234976,-2.898352,0.202801
-105.866867,129.280520,0.111355
94.715205,188.385142,0.848464
40.173035,-53.913879,0.443322
14.099996,-145.567855,0.471916
116.061909,-37.100024,0.239930
-250.228919,-23.193641,0.746983
-54.994674,20.549623,0.587680
86.870380,235.665903,0.349546
-33.817714,-76.488330,0.189797
-44.752512,53.174700,0.457678
-22.042804,-99.390581,0.991481
-9.322814,-63.432523,0.596322
23.227226,72.291625,0.987208
-135.839350,-36.987563,0.458572
-46.343555,-44.584404,0.886333
51.961254,37.887428,0.272928
-122.292537,193.143630,0.157031
18.421773,66.573536,0.663454
116.423744,-91.163837,0.614683
-57.101968,-102.133574,0.401242
-74.475825,-178.965617,0.029116
23.838307,-29.334708,0.736747
-52.389163,84.681988,0.876475
-115.335954,88.744795,0.596041
-14.050900,-73.936784,0.387778
-65.803946,189.383206,0.679733
-97.807078,12.940555,0.745736
-19.870952,-21.871895,0.236656
8.930862,-83.236967,0.865551
-179.872524,19.690305,0.903431
182.766737,32.404346,0.871830
14.443686,-0.759820,0.220296
-40.660076,15.972288,0.956312
-35.938889,77.117037,0.423761
9.676548,2.938133,0.093206
-58.123898,-16.852841,0.892915
63.039116,194.695349,0.464872
-205.924132,-181.716355,0.466475
-168.074374,127.418817,0.230529
101.759724,-39.093832,0.819377
85.438580,121.756855,0.941930
-92.960731,-12.492333,0.653360
198.961295,-57.434263,0.294667
-5.496913,132.280626,0.806872
71.087088,36.513200,0.841048
-195.521355,60.994640,0.565030
-110.338678,-38.066800,0.786153
-15.568124,132.868057,0.819465
-106.742969,-92.528648,0.163688
-99.952192,-63.897611,0.780891
-53.772935,162.661294,0.283478
108.364529,-102.354158,0.222962
-24.437836,-17.255523,0.725284
-76.332480,7.498650,0.793952
-59.335734,-1.535037,0.075328
15.316521,30.333206,0.657598
85.354329,-82.633053,0.311204
-59.862790,163.316958,0.918654
128.695877,145.150127,0.277244
-15.959402,38.934341,0.795548
-15.184181,210.757942,0.201002
177.190216,103.565611,0.102494
-131.836618,75.869698,0.121486
120.613084,144.199673,0.200167
-48.291840,43.173653,0.901451
29.994824,-84.040626,0.797664
64.419816,24.142627,0.894561
-157.712055,65.528845,0.140751
73.802224,-51.271127,0.181702
-71.130688,-56.318641,0.789748
51.500251,160.969933,0.790852
4.296536,64.752071,0.980130
-103.654104,-70.864955,0.033972
72.149668,54.485842,0.754102
-1.981047,59.094972,0.249165
-111.280416,42.843794,0.298183
176.815837,81.157024,0.438173
-17.413638,-76.121430,0.667274
-0.681604,217.041665,0.199954
-90.074709,8.963486,0.530772
54.873528,101.837129,0.454849
65.035430,-103.178096,0.444056
84.843129,-89.869627,0.487101
120.931809,-50.644995,0.265052
71.203376,25.645098,0.736067
-33.666251,-31.509084,0.099940
43.482783,66.527097,0.204418
-59.223691,1.913022,0.867502
280.434073,-50.935504,0.464678
54.158812,46.876849,0.954302
-176.436248,-93.821037,0.836675
-60.228180,-17.977300,0.145413
105.929988,-73.612137,0.257152
85.976406,-143.158554,0.863564
36.364649,-22.219379,0.171735
-53.664377,4.144877,0.559120
31.266467,-85.903496,0.767438
66.526701,-75.630349,0.450714
-147.261002,-81.766050,0.694367
80.399545,-198.236467,0.820983
108.549640,-97.613481,0.166230
-38.503728,76.622033,0.141016
-33.077362,-29.100814,0.063162
-192.901550,-12.769652,0.862654
-118.923077,211.548845,0.294246
-27.571291,25.599479,0.582945
267.941450,160.849274,0.823479
60.031791,130.179206,0.787805
248.698483,-131.304439,0.800936
21.161992,158.150865,0.391275
-28.422777,126.722646,0.021487
-20.625806,22.839387,0.927689
3.269162,64.306997,0.491613
113.386299,72.093060,0.450642
-192.012381,44.663426,0.394700
-261.211665,-91.194958,0.657661
-67.819364,115.066320,0.955266
8.912322,-7.627692,0.998224
63.885915,-42.826830,0.693210
35.333422,125.348564,0.851860
17.708363,99.282698,0.568698
54.609013,-45.779205,0.115159
2.871125,6.009973,0.318610
58.239048,8.820232,0.202241
8.751077,26.302750,0.592688
-24.775164,28.566942,0.277715
-70.840593,67.902310,0.014098
-0.372927,99.318050,0.435649
67.768486,47.744366,0.133468
-58.851565,56.943635,0.181615
31.282840,-117.285643,0.600570
15.600072,-59.009488,0.846772
-34.732293,-40.039007,0.905982
201.649965,269.639555,0.839448
133.020730,-76.472151,0.002125
77.182706,63.575834,0.795297
-26.688787,52.222048,0.599304
-41.578310,76.254005,0.824269
58.521599,247.970805,0.870869
0.378366,-42.889007,0.759851
59.082236,96.643350,0.307706
21.318989,-44.732358,0.662486
95.012935,-51.074804,0.422357
32.930392,-82.959649,0.139759
-112.727587,82.994237,0.673474
-13.291604,-94.582076,0.109188
-114.588841,48.663133,0.259529
-81.300958,-96.064934,0.583278
13.074591,-3.912740,0.230826
-15.822002,-237.685144,0.092526
-56.506698,31.378735,0.514411
-48.908134,15.125222,0.973000
23.103491,112.839814,0.570316
-50.946821,159.026727,0.544161
-52.496271,100.840398,0.874361
-1.855599,212.614907,0.701665
-230.943967,160.087807,0.561904
65.513290,29.215714,0.247210
-31.193042,-86.745703,0.327322
12.208792,6.965142,0.100534
22.086089,-134.838827,0.153126
26.728889,-78.726980,0.512690
0.731336,47.552304,0.616663
-86.334167,-223.225392,0.817256
123.833008,-96.672837,0.990357
-163.008162,13.792208,0.260975
74.422074,139.472100,0.848951
44.181023,45.899023,0.536284
-135.806379,87.361165,0.825584
110.388333,135.992693,0.443158
32.302022,164.047136,0.131604
-8.722239,39.856584,0.432853
-25.544106,88.386584,0.464201
-71.477645,-53.873679,0.914741
-26.690231,-146.852421,0.274445
-227.681990,132.268770,0.296632
80.877217,-156.110485,0.777767
89.860782,-89.923438,0.075356
187.967438,77.544230,0.558944
-15.090857,-53.040415,0.121519
116.172187,125.665031,0.579025
-204.406826,-39.523451,0.983170
140.673008,-96.866105,0.502781
33.839975,138.435136,0.607072
69.223396,147.156513,0.622880
19.847787,99.845716,0.626919
20.980967,-7.442467,0.652051
102.840953,-146.057645,0.553018
92.464135,-66.574509,0.957362
-81.151063,80.406650,0.207864
38.669737,-24.541945,0.474734
35.062315,12.482607,0.529188
20.348107,-210.611467,0.551083
-212.800219,184.158257,0.284762
153.152711,52.325699,0.909260
191.050876,37.410729,0.492737
-60.132696,75.399502,0.077378
130.365204,-22.717037,0.236066
80.608418,-33.387364,0.603377
47.230269,-23.459772,0.311996
159.784140,-98.423579,0.170837
-9.612880,-98.631036,0.291082
-12.558528,107.810270,0.565647
-65.017786,-153.088890,0.625913
-110.434584,-189.748189,0.326215
-218.570458,-163.671148,0.222237
157.240921,-22.645118,0.799767
-65.790917,-10.565475,0.958849
-21.655233,90.400071,0.213214
-7.035130,126.002950,0.845750
152.233714,30.945348,0.304214
28.758261,-62.422742,0.409797
14.036831,-31.076808,0.172287
167.851247,-94.641458,0.831137
48.076621,95.782540,0.994918
-10.345555,-28.315704,0.239437
-93.007614,81.338576,0.028722
61.648290,31.164062,0.175121
147.056027,11.864805,0.987662
78.137630,-27.120126,0.493612
31.020219,77.406422,0.806340
179.237078,26.665513,0.217296
66.646592,-104.702967,0.001087
185.416396,35.896333,0.742920
-65.493049,8.503070,0.402602
9.664559,-164.595285,0.658754
18.158274,93.732843,0.156179
-26.756182,-68.651182,0.061147
-132.909997,-80.391898,0.300229
96.250493,164.573471,0.182249
-34.932800,3.155466,0.367322
53.062888,103.774702,0.245155
57.120823,-39.378691,0.241703
-12.187783,202.337583,0.835304
52.700460,78.779152,0.479369
-55.538764,-50.979476,0.702907
28.503113,-4.241506,0.031976
49.028923,0.842200,0.982547
-2.493875,100.245745,0.926564
64.952070,38.668014,0.394964
22.928952,-187.912767,0.564986
185.396100,-10.774760,0.697596
38.236993,180.468813,0.874897
-7.952570,77.959698,0.425803
-63.979737,-148.063665,0.952557
-168.350865,-79.182262,0.154946
144.483188,-51.457608,0.623272
5.963353,22.477277,0.661055
9.971220,-84.267190,0.122904
109.592259,18.728792,0.551505
51.724028,-34.972389,0.897841
-111.734854,-32.509045,0.430052
-156.945681,114.267945,0.159363
62.880099,101.940740,0.495979
207.238498,-0.608507,0.498139
31.301364,37.932687,0.963467
31.235337,-62.743509,0.132261
60.662101,-4.209249,0.047239
32.973064,-36.953128,0.233568
-53.551025,102.767446,0.111337
57.521032,73.247984,0.796956
-139.690913,76.968475,0.861247
-43.376738,-103.650546,0.425956
138.014057,-136.735578,0.631293
-98.090176,-51.184061,0.527235
-242.685431,48.121391,0.957131
148.099471,57.266420,0.175428
-166.881306,66.493181,0.998526
69.098530,-11.140450,0.979411
-43.512232,58.383858,0.642644
-234.747352,56.250096,0.229682
143.277659,143.892578,0.722941
13.054823,-207.547248,0.809985
30.196813,8.953299,0.828826
81.196796,-40.440072,0.479107
-36.474454,-19.267659,0.010092
99.953931,-194.546243,0.149322
91.939562,6.894844,0.742323
-86.729177,-29.870754,0.269661
61.298216,42.562931,0.560618
-42.683923,-135.626833,0.750572
71.765825,-78.009087,0.484013
-35.464777,-50.196405,0.901729
-52.056807,-74.131296,0.684329
-183.574116,29.625401,0.045351
-123.159385,64.425327,0.025808
114.310632,-25.671431,0.855724
-188.215469,-51.045222,0.709596
39.888376,64.851407,0.165549
76.453606,-54.636680,0.266813
-6.882895,156.683917,0.466338
90.524520,-48.962631,0.862101
22.192591,62.121337,0.992496
48.054605,201.190921,0.994458
96.689383,-165.938441,0.374975
64.077354,-115.123527,0.991450
-16.604988,-12.944253,0.051226
-15.681948,36.559951,0.606610
99.786437,-22.573660,0.202025
84.571891,125.475959,0.511632
-30.618570,-6.010831,0.897627
17.085679,139.283370,0.208172
-24.761018,125.375731,0.590313
44.656491,69.051970,0.954559
54.867444,5.003862,0.796607
-217.522839,-126.755421,0.658849
98.354937,104.442287,0.761615
-138.864120,-59.289059,0.092584
-115.746946,-65.331683,0.167352
103.434044,229.565154,0.226677
-37.180340,159.780598,0.054112
-62.339924,-203.296441,0.623974
48.376318,82.353752,0.402441
-193.028358,-90.521605,0.876565
42.563169,-170.528683,0.848293
-12.749585,65.471257,0.037484
-73.435139,31.640963,0.322781
-35.533237,14.215911,0.892388
-130.300326,48.970048,0.584764
-45.546091,121.151993,0.377524
198.137473,-29.773445,0.158952
106.496919,95.670328,0.794409
-27.626489,45.288105,0.230789
55.807906,66.261042,0.204991
-155.189976,34.634488,0.054601
177.932441,-137.859813,0.785042
45.532811,50.382695,0.554955
-89.277696,13.163970,0.828144
-85.318894,-5.925527,0.677155
-19.620948,-57.478115,0.073266
-29.689992,2.367617,0.434528
-132.322149,-74.537564,0.710796
-187.783859,-168.792407,0.938528
-62.862234,76.913526,0.139764
4.296024,-80.089541,0.486751
114.986988,-56.643172,0.855877
-38.219388,-166.557671,0.243159
95.661921,-217.971431,0.102610
-145.776602,-1.936018,0.764238
6.614226,109.181275,0.657693
-60.374599,-121.519150,0.994846
82.667434,-23.818296,0.910160
-55.904592,-168.655810,0.759575
153.104351,105.532665,0.236652
-45.336471,-267.280380,0.768974
137.188722,-39.334867,0.208016
-91.568554,70.893886,0.947390
-95.261412,-82.128804,0.511182
47.137469,199.999776,0.383962
15.340700,29.931968,0.124937
-45.615160,61.986283,0.892023
-113.893816,136.871222,0.035436
35.111721,99.531017,0.115975
178.198168,-6.279643,0.881043
141.075556,-113.265127,0.304428
164.110366,105.500141,0.492086
100.796487,44.185146,0.404721
86.781108,85.211026,0.041344
-87.044702,33.682438,0.010920
34.828732,1.990287,0.617191
56.672657,70.339056,0.288858
-176.033052,34.342373,0.428660
-150.952110,-31.749662,0.341998
106.736424,-71.275114,0.261824
4.356805,-278.739232,0.266465
79.511108,-34.611318,0.817843
244.829767,104.224592,0.655980
-91.847525,105.265133,0.630293
60.781045,-99.345477,0.751015
233.721308,-92.331044,0.223112
-51.223574,112.986277,0.324676
21.845622,-74.812929,0.504505
-34.891903,-46.424590,0.200219
-123.367911,-17.735981,0.427550
187.295488,189.193217,0.194331
-80.835726,84.839415,0.291019
21.396706,-17.464343,0.547382
61.026431,6.278757,0.089620
-101.207410,44.225178,0.021242
-115.573643,-17.310378,0.227691
60.806028,83.918611,0.052810
33.303085,-42.940645,0.680667
22.291963,41.391444,0.782463
-0.974906,125.005154,0.421626
9.845780,-4.988042,0.840560
-248.628144,-90.260777,0.728568
42.758408,-94.184635,0.133992
100.294929,44.227051,0.166317
57.229143,-61.109378,0.739058
18.999409,71.517202,0.454348
-106.700519,32.121805,0.746853
-99.022244,-12.405531,0.458815
-0.129575,53.022673,0.037571
9.612418,-131.064706,0.250558
22.166720,-70.279042,0.958074
59.554178,40.608210,0.927005
102.152875,-58.434818,0.201045
-67.891363,13.021127,0.224934
-98.562593,-29.801119,0.841459
-26.538984,-72.176313,0.182915
78.206910,-17.448424,0.744313
96.084347,-45.227225,0.093022
-46.661938,40.885787,0.897753
-43.369118,-4.796389,0.472437
-6.924350,88.126607,0.479128
40.211379,81.931174,0.046289
-137.384365,-137.633110,0.620342
76.183653,79.185866,0.107727
117.999939,31.800768,0.148356
39.136508,55.050797,0.913809
-23.976873,133.024721,0.963768
35.874577,134.832687,0.279143
-34.354711,-52.767188,0.397561
-43.305734,-13.386062,0.503961
103.627873,-40.756617,0.501708
39.176471,221.455942,0.334249
-43.469533,0.392650,0.495814
-102.424095,88.321427,0.339344
-54.648345,-42.762319,0.837120
5.115518,78.749838,0.306274
-57.865262,12.967649,0.841952
103.658699,-70.261040,0.782938
47.210290,-89.383140,0.830103
67.135237,188.742516,0.537006
107.813213,-18.776077,0.016465
-243.851106,-176.622320,0.208285
311.463928,262.141589,0.371754
-211.724096,-37.254754,0.718679
158.981803,17.540764,0.190634
-83.806477,-10.821508,0.557078
117.313959,194.052332,0.555372
123.173534,-190.961418,0.510044
74.588974,102.370031,0.363988
-35.550709,-73.359070,0.095727
218.966737,-91.197258,0.677798
22.325855,-150.882449,0.532792
-79.921091,-210.354950,0.280700
-118.047559,-6.310241,0.967141
202.911920,117.922963,0.377966
-49.957309,-48.835163,0.905887
-135.907691,168.945749,0.298855
89.161541,-12.674801,0.136736
101.918944,-60.772185,0.550797
-52.507620,-2.840157,0.386699
-175.443220,30.123445,0.222358
-194.402773,-84.398072,0.117945
50.589175,-27.283513,0.667615
118.670955,62.632297,0.395686
28.557392,11.197447,0.749313
91.649635,28.620923,0.748875
-7.447942,-66.091137,0.245151
-6.074073,183.210788,0.633835
34.172394,22.347205,0.648242
84.763787,-119.314616,0.779487
-84.020594,10.453609,0.342408
-6.090906,-79.327006,0.164585
-88.927847,-27.225723,0.490199
-168.865131,2.978648,0.621964
-29.498941,-127.059113,0.176942
110.594085,100.240312,0.257038
-236.056825,65.382819,0.918117
-67.120997,117.393719,0.516444
136.106487,59.243803,0.607047
127.339309,-83.845128,0.598608
-110.882017,15.265410,0.750882
-139.588535,-120.336924,0.610593
52.866238,-81.569355,0.406553
64.434688,-41.523022,0.293211
-69.060796,-162.146468,0.167676
99.248996,62.957033,0.740432
-111.022139,-69.660709,0.625707
109.827666,-28.273863,0.837554
-69.352687,132.414585,0.230698
-52.052109,94.329902,0.144094
-37.817722,102.202465,0.690164
119.793487,-8.963525,0.170929
18.174718,-40.092160,0.176698
-130.587367,125.122118,0.472200
91.700116,14.225074,0.612046
26.364476,35.670165,0.124312
-20.529793,138.810494,0.622935
-191.370333,79.946710,0.588064
40.577132,109.590646,0.783940
29.966715,107.745990,0.093680
-55.508049,-98.206136,0.531284
10.649901,-1.831298,0.266102
-92.203781,0.822518,0.153905
-98.797672,54.276133,0.695701
-0.607026,107.086468,0.686376
-14.015794,51.410839,0.599937
19.799456,37.781602,0.535951
124.857013,159.340968,0.883588
-112.354854,-55.714986,0.829325
-69.860034,-46.520456,0.471665
60.996805,-42.773681,0.057032
102.573681,126.354342,0.166186
-71.124321,60.528455,0.780064
-181.067884,20.251703,0.117456
-97.461980,1.343980,0.393009
121.708695,50.643679,0.728741
111.966775,-68.477558,0.669551
13.358508,76.615092,0.299222
-74.334985,-61.030081,0.229420
-33.920072,153.466383,0.558434
-0.696716,-11.726260,0.005517
-47.773977,-124.914370,0.787421
-59.902441,116.603998,0.260532
-23.167268,-30.857768,0.913747
180.493824,-165.642829,0.669846
-22.169024,42.432884,0.685408
58.937640,-57.887492,0.435709
-26.681987,-4.223988,0.372437
-84.965093,-152.134304,0.276807
-104.829002,-43.365910,0.843799
-132.091052,68.782294,0.522048
-53.935007,-19.137991,0.524248
47.660562,-31.900228,0.258979
64.512183,-2.378461,0.863771
94.253204,-116.521349,0.903689
260.069184,133.187673,0.483209
-21.511776,-36.272287,0.971581
-13.757042,-211.455753,0.451932
102.167087,82.785639,0.364893
48.568441,65.277050,0.804546
54.592168,-29.413394,0.776713
19.138396,-204.256131,0.754467
-9.531943,-33.481969,0.965591
-14.549767,-38.147453,0.442498
-78.612897,43.537893,0.872369
81.546426,132.498065,0.125872
-195.075544,8.946661,0.405906
177.701105,225.383579,0.824725
-8.734436,-46.187081,0.157564
31.451459,-72.115292,0.265174
-98.420418,62.748251,0.209034
-118.136952,-22.776850,0.008887
-69.992825,-246.639946,0.521058
163.126099,24.128756,0.391007
68.783584,52.333015,0.818731
-81.946276,28.608947,0.141935
-57.993085,44.293322,0.496358
151.450939,-22.446799,0.554579
-259.975647,15.423234,0.067179
70.894277,157.993658,0.161817
14.043264,-23.149496,0.134622
35.496553,7.417261,0.659308
-5.166474,-181.196938,0.567250
-3.382262,25.673626,0.796402
-179.796261,-222.453424,0.357183
-167.556633,-26.744156,0.525829
41.256937,-17.233027,0.087982
53.220990,-30.076216,0.685163
-115.241687,137.063054,0.649386
61.633267,69.219176,0.043205
38.075446,-62.234210,0.998188
-17.563144,132.503535,0.380936
-37.957602,-12.596521,0.750398
-30.615778,176.904403,0.662864
38.532134,-51.453787,0.449618
-107.288522,28.956190,0.369606
-30.636351,39.779728,0.663240
202.626911,176.569848,0.357992
-95.443805,30.642077,0.052251
-65.992529,19.553427,0.281392
-4.328455,32.682527,0.292861
75.663845,45.862484,0.614894
58.079182,-33.226937,0.660023
-27.058040,30.153793,0.291291
83.934835,-55.060785,0.655126
-2.705386,-61.203569,0.385700
-25.297160,-2.289298,0.994541
133.699236,156.677872,0.476960
29.495694,11.790750,0.628360
-87.118077,-50.689656,0.980180
-12.243048,145.085768,0.368939
-16.761657,113.026481,0.562025
110.419459,53.888596,0.006047
-13.636797,-36.608109,0.225014
-117.880559,-73.762178,0.875504
-112.153594,-75.061006,0.190071
-106.821421,-198.811410,0.650906
29.841257,43.462493,0.363616
40.566233,146.410199,0.623979
51.039404,10.034005,0.894285
118.966819,48.994627,0.458315
-46.369184,-124.920672,0.868411
102.266705,16.668532,0.866080
-29.094677,-46.173050,0.663058
-91.758150,-52.207687,0.331730
90.777164,-25.444910,0.239792
-61.632838,-92.688240,0.983362
-105.496996,24.289400,0.792819
-91.526494,47.933206,0.550187
76.037204,-60.761341,0.143525
31.193396,-174.609411,0.386318
129.244652,38.194266,0.040924
20.861866,-144.465013,0.947061
130.637848,100.006746,0.426307
8.500599,-65.880677,0.580329
187.048216,73.670397,0.103720
113.064008,-22.055780,0.072961
-11.383622,47.766813,0.167601
-118.986723,9.478625,0.448533
1.429365,119.778732,0.844142
-13.096428,153.085633,0.987925
-60.627034,108.065143,0.575630
-162.625408,122.799520,0.400861
105.324637,79.977504,0.969645
69.489889,-13.089913,0.154460
200.336361,33.415602,0.040515
-44.848465,-60.504766,0.945907
95.489605,20.622542,0.141965
22.812103,-155.449799,0.280060
-15.728370,65.160872,0.247411
111.094261,62.716010,0.247147
63.694455,-95.862737,0.418609
-166.612621,141.716601,0.235109
27.819484,27.481663,0.314448
128.363351,-55.897853,0.313340
-165.608377,245.671330,0.264159
-17.329541,-74.937063,0.066004
-31.446055,199.266213,0.500671
-25.826611,-52.123150,0.033272
11.530264,-108.859389,0.055898
-98.158385,207.926420,0.268275
89.932186,118.286397,0.172539
-30.098264,34.054023,0.105523
76.386509,55.533392,0.705702
-116.793689,-28.958379,0.993620
128.216304,82.959720,0.828541
45.546567,-145.789657,0.585088
-102.507662,-108.591550,0.961028
53.699127,-42.516232,0.187916
-97.253265,-33.478516,0.996880
6.141114,35.505590,0.813637
-44.746660,89.291034,0.826903
69.374725,-42.996880,0.383021
36.974794,-14.057851,0.730901
-74.366644,-74.669837,0.677913
-103.283042,41.252248,0.269796
-166.005900,-52.701916,0.300860
18.736321,32.333470,0.097511
-38.660471,10.223470,0.653531
7.138225,47.635551,0.680268
-35.513657,114.395398,0.227018
-146.698230,-9.521801,0.036662
-23.304109,-24.946031,0.266460
-74.839351,82.586705,0.739501
-10.381120,-34.759548,0.854962
-80.772872,168.498454,0.814373
119.970213,-52.935193,0.717261
54.206220,-104.041449,0.342272
18.059538,-12.818664,0.146568
-118.120880,201.604825,0.020485
-132.757520,75.086191,0.516247
-60.031076,-48.543019,0.752763
-115.857004,-129.447857,0.929346
136.417174,120.956573,0.956841
-102.125049,34.690677,0.433479
104.175284,65.345254,0.541769
20.281243,-131.800289,0.339053
4.672927,-17.442028,0.683365
59.404822,168.982387,0.402269
32.452805,145.251551,0.008051
92.857327,61.271714,0.116475
75.981139,-124.567492,0.302690
135.299120,83.720638,0.144743
-92.656149,8.576620,0.434187
-26.485048,-13.934506,0.882404
-59.942409,57.862270,0.719921
-247.094644,93.923444,0.417025
-11.596870,-36.884284,0.401408
-96.377207,60.369671,0.443027
-162.036288,117.172927,0.000470
139.871077,149.472931,0.673948
-118.531810,-139.674453,0.342729
66.296583,-36.683004,0.772061
-75.831324,12.622360,0.130162
-62.461822,-22.134737,0.371196
182.830012,7.216709,0.580897
-10.708068,26.004374,0.752439
38.851478,-98.469372,0.519751
98.658379,-181.660958,0.708455
-223.739342,-138.456469,0.338158
-40.939970,44.169350,0.753087
54.202307,-42.525213,0.592064
39.648067,-50.353480,0.098820
-12.118141,149.453641,0.867079
75.215993,-44.043885,0.889634
138.441338,-138.718710,0.411533
-33.794437,32.345998,0.905632
8.824912,46.157934,0.280368
148.018794,277.577010,0.543108
-63.619430,18.373367,0.629496
53.886360,128.705489,0.939496
34.967809,-98.331856,0.185144
75.233089,-29.456548,0.586331
-216.310941,12.197556,0.170532
-94.237071,68.527642,0.457672
17.170714,-76.102124,0.175569
-122.530422,3.350374,0.467732
-109.914086,-145.300822,0.464290
42.855364,51.240543,0.269933
-53.033194,-78.310345,0.581018
-54.276543,44.042288,0.851846
-53.750414,45.649161,0.274538
112.876098,18.910744,0.102470
-51.353645,-53.047348,0.392074
-10.806789,20.051006,0.223086
74.353343,-51.603345,0.163773
-25.658641,193.887339,0.136986
51.054857,-41.615750,0.816016
-83.268218,-104.446449,0.362294
99.164201,-48.989132,0.206682
-179.692947,111.111922,0.077357
165.836538,-51.975769,0.967875
234.296757,-62.852711,0.630418
39.291000,17.813372,0.797962
35.787943,44.970654,0.930355
-40.226697,73.499245,0.020607
-101.174137,-53.315182,0.253726
-47.860714,25.890808,0.805298
-1.838519,54.562128,0.248083
6.490017,23.465828,0.718450
36.753842,22.050754,0.350668
-78.851000,-50.438235,0.601668
22.361203,103.100252,0.695265
-25.034553,50.791044,0.542668
53.431029,169.058875,0.589891
-5.473616,-124.255768,0.221034
-83.876833,75.316316,0.259305
26.121791,100.984420,0.463391
18.085861,5.342552,0.396898
85.020053,119.300848,0.724238
20.677184,129.363923,0.064592
271.966533,19.808740,0.962857
-86.527340,-116.293161,0.543582
78.752612,-7.358740,0.559547
28.507065,104.730046,0.804290
-36.248946,-39.481858,0.178572
-26.588664,121.447079,0.996498
-76.271739,100.361415,0.406290
-170.828414,-133.923482,0.888457
-90.046197,-111.763096,0.545346
54.645004,57.430066,0.726628
-49.730289,-28.240662,0.270433
70.292681,6.244777,0.663608
115.354286,220.633550,0.406570
-23.073755,-51.022649,0.716070
-80.386385,-101.627479,0.719735
-21.691423,-90.094643,0.715237
104.243319,28.363749,0.847448
-73.891483,-47.908637,0.645355
193.309316,-160.773295,0.891031
166.846804,94.186820,0.985229
-127.766661,-66.341527,0.208843
-122.033428,154.622125,0.155615
80.453018,75.317568,0.860666
-148.605285,123.108053,0.186396
-132.761478,68.064353,0.576881
-149.915690,104.957009,0.222114
39.005709,120.762081,0.588419
-100.920389,-54.997852,0.334123
-164.581814,77.694600,0.599936
26.769774,56.259850,0.133967
31.370890,93.102794,0.956080
-25.115380,-40.456575,0.513801
-165.831581,137.105094,0.929208
-141.572133,-254.522106,0.736241
121.745190,-4.742969,0.267976
89.751287,-90.452848,0.333862
-65.174577,-46.485899,0.259308
26.889905,37.066524,0.053241
34.740580,-97.647572,0.236456
99.550289,-60.987015,0.870555
-130.310784,33.852116,0.357796
-73.391908,13.412083,0.892436
136.587779,30.133973,0.946460
-52.590920,49.396610,0.683969
89.683857,162.443621,0.957825
158.252980,-48.557777,0.238601
-248.223231,-27.859228,0.023891
127.677173,-5.898111,0.145203
4.343613,222.928209,0.623303
312.540344,-31.854682,0.465884
-43.926791,-18.300555,0.618171
-42.165385,-155.203165,0.566527
26.037664,-133.574452,0.444934
104.181520,75.853823,0.411637
272.993909,117.415172,0.630318
18.340173,-147.415227,0.635644
56.496437,46.295770,0.991189
175.975661,89.636482,0.294222
32.048676,7.963675,0.386120
-11.044075,-129.129087,0.185182
147.836819,-23.268987,0.488096
-65.267800,9.479834,0.152400
175.905510,-245.560836,0.832087
126.087683,60.733835,0.940670
-5.096931,-1.467993,0.794110
-36.395844,40.985960,0.718928
-237.314898,95.429149,0.876015
-78.143083,151.528238,0.351755
-88.918224,157.773675,0.636422
55.751004,47.339871,0.392041
174.834458,-10.492130,0.043799
-18.431111,45.199322,0.526068
-125.889840,151.908601,0.261336
169.842055,-1.603101,0.623089
52.350695,119.119672,0.208363
-213.756303,128.984138,0.095691
-166.698209,53.961133,0.102791
-36.457901,-36.153639,0.029769
176.779906,-8.467725,0.999560
-112.195438,-41.246816,0.816594
10.937768,44.754263,0.196841
-56.182946,-58.387637,0.155143
-27.658263,39.274596,0.615274
-116.732293,-146.968178,0.281018
28.774337,54.464171,0.390647
-83.101262,45.662648,0.223617
29.798561,-98.714440,0.618108
41.575139,53.001844,0.511274
140.826075,115.552068,0.765677
-113.902462,0.936530,0.654127
-203.655653,-168.572431,0.981650
-40.252978,-23.902419,0.418820
-9.303417,43.560304,0.316119
-48.624046,-5.677127,0.400446
32.900022,101.682731,0.092707
35.903047,-176.388899,0.875762
65.774029,-138.981973,0.389161
241.092951,-170.748382,0.073557
16.792254,-161.755577,0.757139
-108.264946,-89.294878,0.894949
168.947831,-33.009065,0.159830
39.581843,-58.780400,0.770052
90.009927,-40.277874,0.051879
276.410497,26.373709,0.684381
62.735628,71.106290,0.826968
104.347146,124.135190,0.722318
-245.639417,-76.205017,0.700223
19.916084,-23.388134,0.289031
-118.151433,-10.256380,0.241612
-67.682858,91.268824,0.586017
124.235131,22.050367,0.358922
110.143068,-79.653496,0.248504
51.979394,97.413059,0.503706
-55.921799,43.351984,0.086785
-58.054968,146.985183,0.960108
94.149337,24.844338,0.203908
-90.999984,-1.582912,0.532013
-88.166432,118.834249,0.019161
142.537355,50.036688,0.573983
-61.578226,48.468887,0.056853
-203.118097,-51.332253,0.235029
-35.726410,-6.307425,0.662646
14.587396,-51.095467,0.861449
49.360681,-27.014074,0.543497
58.552091,39.148527,0.075046
-128.169341,-116.181597,0.484043
48.241099,195.206456,0.817831
82.238949,133.813783,0.039074
-88.805875,-57.091361,0.164502
-102.602584,134.079115,0.050348
214.583522,52.972934,0.711288
122.721665,33.354351,0.799090
72.528413,84.392786,0.872807
-114.110206,159.127301,0.441359
77.151518,93.802017,0.179979
138.865553,-12.300380,0.160585
101.045621,-40.401436,0.841909
-60.360888,-19.842740,0.533757
-102.843746,-145.114601,0.308377
-63.686772,71.149694,0.001642
140.514348,36.146165,0.601146
229.262204,19.941949,0.290916
-20.673101,123.056376,0.055105
-15.526795,88.220587,0.530287
-13.941141,2.012601,0.586425
96.704249,193.437997,0.142453
62.182242,57.194722,0.440196
-2.033900,-25.525957,0.361967
46.561518,0.343027,0.421051
78.810999,-24.302625,0.292512
-58.934017,-14.115310,0.082781
18.377757,92.425784,0.513577
1.582033,76.953457,0.491532
43.307614,19.217851,0.190781
131.072369,-1.836439,0.204241
44.032482,92.072871,0.595837
-106.001201,-65.481910,0.368865
91.758960,156.001553,0.120797
-94.431258,-93.472662,0.526290
35.763685,42.556216,0.380574
-13.760931,36.619340,0.603412
180.560570,-221.450684,0.612823
12.102091,-58.402660,0.741194
-64.317722,-18.064506,0.890341
165.669686,-192.130443,0.392465
-55.769648,-73.890184,0.076305
34.574286,103.252084,0.667668
-185.439356,24.075428,0.894411
-76.201164,-105.031570,0.938573
73.342104,34.694678,0.259767
-36.687588,-80.304683,0.218437
170.628073,171.249041,0.156601
239.549016,-43.410381,0.443263
-73.223684,0.862186,0.990024
23.558050,-99.188521,0.267843
-50.783418,-47.418972,0.916294
57.351983,-21.268597,0.368670
-62.811059,-141.861107,0.916637
197.697555,185.515596,0.502449
116.706504,-101.359999,0.583677
52.854644,-11.378709,0.664400
153.358217,-48.025107,0.102083
-49.974210,-1.312959,0.614292
91.466232,-117.775973,0.466146
-87.712683,-5.057293,0.977603
-37.359542,-86.797454,0.194980
5.419595,-52.325960,0.639057
173.010614,-73.557625,0.665545
-202.331767,-118.722929,0.801037
-173.797973,-48.780195,0.400453
39.849188,113.753824,0.694568
-15.835192,153.023445,0.874207
-97.090857,-78.197616,0.032902
134.351357,132.863146,0.862248
-122.123569,37.459593,0.390058
-225.816915,98.306725,0.975337
-83.929605,-203.388106,0.244305
41.281965,-129.744266,0.788305
-113.822564,51.387806,0.987695
-20.007480,-76.011894,0.397862
316.857151,63.662772,0.792970
55.471510,-151.554257,0.514191
-61.907868,67.807710,0.975656
71.000076,-143.001107,0.130397
-154.140944,22.508249,0.011466
117.427600,-11.010695,0.092280
-89.504647,-134.593053,0.811345
121.831676,107.031146,0.653621
-9.067578,93.914938,0.419939
-13.268671,191.515289,0.133649
-288.241080,29.961910,0.682074
122.635386,-22.658924,0.126754
123.183427,-66.971741,0.802361
29.091509,-72.993842,0.176992
26.613113,-20.739781,0.031158
-124.813074,-79.333387,0.578343
-145.039263,-117.266324,0.681091
45.650921,-49.717248,0.236564
81.085022,-124.469715,0.366991
-71.371964,51.647953,0.755985
-50.498148,-9.662838,0.963857
62.460165,200.827658,0.229645
-25.992184,-83.902026,0.865308
-42.718267,-14.761026,0.054938
4.836173,61.110233,0.444558
70.457033,-45.866020,0.843640
125.281449,17.925361,0.619120
-10.562579,-221.702478,0.677650
111.533461,-26.588936,0.920681
57.709379,-49.911793,0.224652
122.082157,-103.086652,0.032930
147.619075,-16.858400,0.635229
8.700408,-48.756197,0.056471
-41.482287,-22.334638,0.688683
173.157915,-42.754627,0.925727
195.160068,35.792102,0.910430
-6.009718,-5.660308,0.576265
111.770568,164.146966,0.407748
-32.503073,48.617771,0.903997
-8.135315,153.980157,0.011867
-89.577581,174.884604,0.300994
-63.626600,50.907965,0.501195
119.420034,31.525391,0.345783
73.850603,-25.788459,0.239455
73.187435,-64.851592,0.668385
-122.337724,-15.004827,0.940320
-206.153338,-23.015846,0.912095
91.304843,116.310258,0.001837
-65.569331,18.875829,0.599306
71.562171,23.181329,0.532383
130.544816,-38.884580,0.743909
-29.223727,-64.383908,0.880612
80.428166,-42.453565,0.997452
-78.496232,-41.922779,0.267282
81.463778,-75.829983,0.965671
-62.093040,39.313947,0.242411
154.846544,44.518106,0.876700
-95.116817,53.382297,0.799375
-13.506130,170.972627,0.803976
111.416473,-15.844753,0.957913
-70.854161,141.756325,0.730544
-147.586305,135.683485,0.435890
132.919628,159.192297,0.194047
-48.706295,-15.777685,0.621573
-70.958025,78.662049,0.932828
-15.752078,34.347806,0.646286
-219.825564,142.662986,0.290403
-140.957049,33.545203,0.402278
-215.231804,-112.412742,0.150772
-186.243637,58.875559,0.622207
108.286032,-106.175070,0.764333
57.933238,-109.204042,0.259403
6.598175,17.871324,0.665869
-16.107279,58.364473,0.853329
100.403725,-95.950742,0.540195
112.541322,-97.456776,0.727760
-179.032513,-73.759416,0.877696
-82.798728,-27.992589,0.647952
-0.515884,-74.801414,0.855153
50.439221,-199.195173,0.901622
62.112081,6.538024,0.824013
-83.403672,-119.908073,0.383755
38.832408,102.950843,0.621435
-101.520409,-37.378663,0.948240
50.622227,-11.440958,0.642906
224.240027,-181.634900,0.045680
-34.922306,-156.914567,0.735055
-124.643595,21.291591,0.040550
-155.862128,59.061636,0.460304
38.263355,105.650481,0.273621
9.210659,44.719579,0.750353
-84.021753,-19.574381,0.029894
-54.988676,-163.788147,0.455113
50.246401,-53.229982,0.812363
-84.613610,20.236415,0.083412
-36.563887,152.614365,0.781694
18.744741,70.985921,0.771111
-128.556924,185.194017,0.456871
8.026072,-245.044118,0.775664
11.820197,-77.806568,0.279333
-117.507519,24.555315,0.599958
17.176402,113.185500,0.520886
8.420054,116.875720,0.176251
10.910298,-44.571985,0.654422
-15.237679,-49.571653,0.471566
-55.324357,79.201107,0.196260
-117.887484,-120.729406,0.504399
-5.265944,142.726254,0.953857
44.662589,-0.486755,0.514929
18.979011,-37.962496,0.165070
39.542314,94.091284,0.093931
-34.462905,-7.157461,0.853913
-68.675077,142.827097,0.366047
140.118344,-37.246505,0.610476
111.645209,-77.220313,0.952217
-94.564788,-71.989885,0.632808
-5.515992,57.366213,0.313140
77.025514,148.838131,0.957490
-91.770476,123.391572,0.554677
112.661977,-132.758974,0.180084
-173.767095,140.039445,0.366003
73.754415,-77.046704,0.120770
52.520631,-20.563594,0.631541
-2.752183,-245.348106,0.710096
129.257929,-3.832594,0.312174
103.044155,-106.806152,0.468466
-21.143778,-24.057636,0.381939
-103.890494,86.275071,0.081180
77.899521,-37.592572,0.832671
-20.155304,43.729706,0.310859
86.376698,151.491032,0.105441
5.961309,38.033716,0.113171
-40.400838,18.500638,0.036613
196.370380,144.667353,0.347944
-96.539767,-128.333249,0.939726
10.599628,-41.618164,0.396766
17.643516,72.631313,0.272762
-227.342778,-197.029762,0.809874
-62.704825,80.912274,0.798482
157.077416,90.227953,0.731242
-71.703167,-158.157101,0.211914
-1.494325,86.068817,0.981840
-132.689346,-100.065167,0.538241
-91.445273,76.906196,0.937182
142.956587,-107.656806,0.412652
66.138854,-239.647680,0.093050
-65.148227,-135.176754,0.708204
136.290840,-1.022572,0.258665
175.457843,189.730755,0.200705
-93.273598,-2.498460,0.700036
-77.499476,106.448339,0.777673
-124.423901,-32.001453,0.000445
81.008707,130.739870,0.630832
-5.739823,-52.193308,0.099672
-68.920022,-84.709257,0.779945
-135.189818,14.394411,0.312412
33.980777,-31.779490,0.732774
-38.164965,-242.459213,0.135973
-205.185674,21.812239,0.100828
-7.802470,-109.338633,0.846951
-82.647559,100.558584,0.790362
-36.547560,-93.829330,0.775356
11.101299,128.970388,0.204982
-30.680741,129.841568,0.205003
92.738560,130.694151,0.817059
5.681862,-112.789929,0.701537
82.801283,0.624202,0.634332
8.237416,-124.599012,0.193694
-66.559425,-3.652611,0.902869
-37.657418,66.566228,0.151483
9.090639,239.527658,0.176247
-66.857369,-70.369311,0.315823
-7.301268,105.806548,0.417199
-39.965437,-9.030239,0.341235
67.768669,88.129617,0.908678
27.837377,-137.617791,0.594980
-104.373468,117.922822,0.197801
191.301045,-17.542739,0.355673
15.965486,172.478737,0.542226
48.573340,105.485646,0.766591
-137.763071,-29.426999,0.919033
60.704665,-73.058273,0.980607
79.178344,-41.549147,0.144906
211.984269,12.832027,0.204634
-70.136883,81.227548,0.407289
76.857358,-125.703228,0.051905
61.572834,-222.891389,0.917117
-128.963830,-82.309570,0.475325
-28.432132,91.825269,0.642671
-11.338158,-160.793069,0.688513
-113.942872,-45.254925,0.527677
-125.039508,-28.160580,0.429732
-41.485900,192.350281,0.277077
154.203648,103.100978,0.917168
14.496819,-21.472654,0.069605
-57.824558,-21.833025,0.888455
2.365056,178.904464,0.946089
-38.993471,117.846912,0.516526
-66.374691,159.105338,0.423384
-21.283887,-32.138027,0.728673
-40.223800,-136.509906,0.339377
174.443039,-17.222970,0.609919
-168.777903,199.770822,0.466822
5.762162,22.503908,0.480612
-133.024925,227.147542,0.177273
-7.171805,-103.659459,0.432908
11.239967,-77.617976,0.086821
2.615371,-0.703609,0.771827
23.880895,-128.751662,0.911942
-330.407083,171.806776,0.624372
37.401311,-91.640489,0.829353
-175.874213,-165.217815,0.110103
43.689158,83.489233,0.781603
157.519877,-37.299983,0.980965
97.427572,138.156269,0.077304
-58.636527,28.952494,0.797059
48.674209,161.074260,0.200905
-137.931054,51.890168,0.577129
-168.620484,-57.266797,0.561437
-21.358518,-26.297613,0.509555
97.819551,-26.722230,0.714616
90.834870,30.499835,0.563315
64.922458,202.140329,0.533014
42.621744,123.741036,0.187013
-177.333293,128.300132,0.786862
-27.573679,29.921720,0.203917
-111.867636,-173.036498,0.045441
28.379930,-159.008513,0.355950
-73.759180,102.346754,0.428423
-37.298348,-18.388479,0.966761
-55.302628,126.305591,0.390371
55.620050,98.140643,0.317651
-34.177852,-99.053314,0.568027
15.846457,-7.237656,0.600282
8.552815,-120.015986,0.032734
63.984670,40.492861,0.645504
71.384766,-183.205104,0.389963
41.181152,26.283076,0.207190
-39.057900,210.378558,0.103576
37.425551,65.767924,0.466371
97.270984,-104.588717,0.730925
-5.841726,-37.288402,0.858425
-147.029239,-96.002327,0.557851
205.040738,-92.070980,0.218869
74.944787,29.547536,0.911652
41.802610,-135.356271,0.329072
57.819598,57.190893,0.957508
-115.915467,-47.630419,0.093958
-98.636418,109.228879,0.171301
-20.280881,48.145939,0.504713
-168.943698,81.239593,0.908006
-33.740165,-14.421668,0.767776
-179.281405,-237.220829,0.199998
55.032522,-200.162266,0.182871
15.802732,-236.957290,0.013952
130.348873,-204.307855,0.609626
-26.851354,-16.479099,0.357251
36.299245,55.441878,0.618473
184.267697,-229.821512,0.220204
58.365507,173.732069,0.400389
-0.020900,120.219748,0.023750
69.412927,109.564112,0.046525
124.433215,-119.567433,0.422300
160.984091,18.029879,0.543341
-218.155848,-168.543416,0.352213
-23.187242,-21.794798,0.331441
120.431062,10.700527,0.969349
67.458052,-180.630876,0.374844
-97.051946,-29.963224,0.721432
67.320128,-21.678529,0.712243
-28.582945,-51.109957,0.785322
53.191732,-135.169740,0.048387
102.974812,-13.510093,0.325896
67.684616,50.083402,0.056904
-124.577011,-73.375439,0.001444
11.063951,-178.335734,0.079812
-165.701702,-172.316733,0.271767
-3.516967,133.055401,0.181753
-75.800010,108.715348,0.152700
-90.909084,-120.621886,0.818426
123.289918,-149.682908,0.448812
-86.136801,163.723866,0.980442
155.168147,-38.928029,0.100838
9.799221,64.098881,0.175247
-46.145166,-75.397050,0.972578
4.235593,105.723886,0.398394
-187.196453,123.863938,0.879201
40.157364,-15.260059,0.355127
57.318801,27.953007,0.260391
-126.690187,-155.876614,0.588686
-77.824534,-105.176866,0.957355
42.427721,152.402900,0.153608
42.685879,-35.530045,0.434891
128.274550,-53.573180,0.147512
123.022915,44.442015,0.092339
-116.543108,54.925025,0.481691
-135.978329,10.082918,0.000567
-61.480183,196.996930,0.277518
-118.274646,-228.677051,0.678406
86.818301,-90.884413,0.172053
-24.995441,-115.405609,0.736631
-35.233631,175.243941,0.418245
-37.286959,-107.048010,0.160559
127.827821,-37.330652,0.651037
-102.374115,118.364277,0.283395
52.737582,64.445944,0.063245
24.896439,53.013765,0.880858
105.606114,-110.451839,0.247241
122.250691,-13.477048,0.519852
44.151314,-135.170212,0.993545
-184.165440,-15.047087,0.792229
-40.783420,55.633478,0.918598
-219.935771,34.057463,0.209474
90.431794,18.784304,0.035016
-217.353295,-141.179358,0.980559
71.225523,-12.390393,0.029847
93.309126,118.276452,0.684098
16.351429,84.581298,0.237992
-150.430546,74.350856,0.613185
84.866321,71.533547,0.719847
-72.814058,-36.201086,0.062760
-35.189721,235.692691,0.132489
-78.816376,35.725895,0.385358
-82.456546,155.527910,0.099503
-96.939818,107.279238,0.706290
-63.373008,-35.519080,0.888892
132.665621,-154.764815,0.655248
24.828558,-44.281189,0.095130
122.146636,-73.364000,0.978169
193.871347,38.344027,0.769157
-52.496933,-67.944256,0.318626
41.556446,10.626364,0.963252
56.976654,55.456075,0.306636
99.752052,-102.180985,0.535632
-71.786592,33.322735,0.108756
27.889386,-87.358001,0.883345
29.420264,-121.102472,0.703480
-96.627342,47.529336,0.602137
80.421353,7.827242,0.612054
84.366005,-92.433513,0.949425
58.201126,33.198448,0.325201
-123.465999,-148.498023,0.330794
76.977971,-1.659144,0.112421
-285.524897,-130.820002,0.282973
93.721822,6.032890,0.801581
110.746436,-63.756866,0.701594
42.507642,-139.672802,0.620289
-12.831542,88.965546,0.798700
87.348397,-33.786788,0.649882
-93.128143,50.751202,0.868312
-30.679813,33.371259,0.524764
281.854944,-135.861127,0.273713
30.514466,-55.210600,0.481431
-108.586868,18.643199,0.132462
63.428513,49.532861,0.870654
-126.991789,-30.014743,0.771756
55.186169,34.534302,0.885552
2.173407,-54.342561,0.028244
43.095266,108.588285,0.518063
-57.581483,12.607569,0.079992
-23.737490,-65.986474,0.069295
-168.258270,94.900186,0.505257
-107.791977,184.656840,0.728317
-112.397560,29.987365,0.102756
-69.385746,75.343764,0.250098
-27.445712,-144.630678,0.779913
38.450046,-108.277474,0.232398
-22.341720,-111.456520,0.291801
161.882903,17.715721,0.584602
-21.551090,-54.233543,0.820220
115.573638,107.142012,0.441003
-34.322361,-107.665032,0.970240
-39.010391,-7.997113,0.954873
110.408323,32.130704,0.438127
-12.036481,-81.691768,0.472210
154.442323,132.626216,0.580653
-50.429133,-44.675042,0.548333
-12.618790,80.896423,0.579102
38.985594,119.701205,0.688993
-38.910239,-49.116562,0.503295
19.075817,-57.997283,0.153267
0.031944,-174.308538,0.770953
17.428387,8.236191,0.325036
123.663533,-161.122787,0.781199
198.906918,68.023824,0.331559
-49.112100,-185.515760,0.242533
-3.152668,-25.317404,0.775344
74.581740,-101.808796,0.818186
-40.765947,0.309536,0.408521
-77.771772,-2.096621,0.779440
-86.738323,-93.389093,0.130357
27.589378,144.224050,0.205097
17.066903,-61.598728,0.196102
156.133656,26.868984,0.663484
-42.331984,15.080972,0.579851
-101.353606,-64.569677,0.316684
-46.360164,-111.655267,0.849643
-84.512547,-38.596140,0.326138
166.612901,-40.981752,0.032515
-51.853010,111.473660,0.314725
144.223510,31.876701,0.620774
34.868677,44.807022,0.869823
53.722854,136.211198,0.941028
87.177154,114.065070,0.965665
89.821126,179.301830,0.271179
83.412004,28.214728,0.626455
33.143984,-151.015070,0.242600
-81.146144,17.259488,0.510231
45.565257,84.645842,0.747259
139.524812,83.630488,0.753402
144.047236,119.095056,0.591263
-60.386988,13.708374,0.395546
-4.058403,-72.203189,0.305793
60.636351,165.756999,0.746679
-87.237537,74.814641,0.818873
-84.520779,106.399794,0.819447
-193.266215,41.750498,0.848916
-41.556220,-193.944836,0.399938
-114.211122,75.626542,0.832309
-30.063759,-370.926712,0.212325
181.732914,185.296337,0.247431
62.797929,135.332840,0.171251
93.109191,-240.399258,0.911794
212.017324,39.937059,0.985628
-14.291349,-7.171880,0.784204
113.476812,-75.709628,0.179354
-182.443458,-174.916294,0.086274
-53.829728,114.248767,0.641925
65.832345,171.319384,0.264713
-59.147559,-34.540837,0.434208
-1.931103,-30.862927,0.496403
-27.393700,46.931091,0.195789
-59.047029,51.868732,0.667598
-96.112257,-85.867144,0.830388
-96.792246,11.936341,0.931631
34.376456,-74.111528,0.250898
58.933614,224.093803,0.177447
18.096634,33.214697,0.435312
74.793853,79.195460,0.461136
35.823869,141.352332,0.191095
-68.613986,156.156970,0.132885
-31.392194,156.946112,0.079561
-26.149327,21.472421,0.107362
101.604119,90.394661,0.204995
80.450956,3.732895,0.597969
-16.828013,25.063393,0.038453
58.320256,-58.869215,0.841027
-12.422933,84.259166,0.253730
-15.429717,-60.058574,0.932415
17.869582,-21.827277,0.426642
-0.088197,59.092845,0.053746
3.878589,150.316721,0.356597
-129.123044,229.624114,0.057869
24.528701,79.281994,0.161475
-27.494712,45.224155,0.708213
26.662511,139.137533,0.721671
-78.369003,192.092365,0.989718
-43.923818,-153.004567,0.214596
-20.250748,-261.127132,0.764096
-151.864415,58.805576,0.117970
-167.608045,11.983890,0.531342
125.927114,65.126023,0.793711
41.561518,-15.398085,0.411809
81.373511,-142.154432,0.733105
-120.401438,-8.436990,0.861059
120.251781,15.761914,0.527463
66.035008,-52.306975,0.811703
47.690701,-29.489101,0.837758
-130.740068,-20.479985,0.366570
-58.329619,-99.157537,0.402261
-201.697630,108.015955,0.640663
-35.999847,38.694759,0.005655
-96.224488,-113.310947,0.822955
-105.959790,-49.919174,0.203535
5.219066,-1.654763,0.642467
-12.300572,98.180927,0.650329
-70.104139,40.951787,0.977453
-174.674906,-60.624820,0.778185
76.509041,83.526969,0.835309
-87.269155,-87.612137,0.634401
-99.532822,-106.774015,0.536121
97.745466,74.706962,0.909074
77.169578,112.333585,0.949039
-109.143608,132.990687,0.149391
-28.326427,-82.587966,0.010612
62.322568,30.011008,0.499839
3.839234,-24.428332,0.805030
165.961427,-61.204311,0.341596
-22.888189,22.268673,0.381858
29.445455,-11.666833,0.816818
55.718787,203.486355,0.862683
35.708231,100.683543,0.430538
67.527999,-65.874777,0.971653
-27.799975,-46.141716,0.501741
167.757914,22.647989,0.700271
-212.714873,-71.374401,0.090807
25.469368,-78.084850,0.729164
-60.750460,80.964684,0.346144
123.579308,-90.637051,0.919108
-119.203867,78.193794,0.319029
-9.181544,239.322538,0.229958
52.172434,9.199343,0.084216
83.846960,56.291435,0.348489
-57.451777,-11.059448,0.321436
-73.131796,-58.583705,0.841490
-21.935019,20.450323,0.324062
68.582487,73.743593,0.799730
-68.719220,-20.384651,0.885172
-102.342563,-101.914406,0.548928
124.608474,145.228975,0.546653
-53.327778,0.070417,0.264395
125.941338,-112.626867,0.996546
-8.330531,40.182017,0.698741
-109.510274,-32.632622,0.038909
1.847636,117.998738,0.162029
-66.119930,11.703545,0.275048
-159.138558,81.354529,0.029897
-41.654298,-64.185153,0.744867
